6.7639,6.7639,6.7639,6.7639,6.7639,6.7639,6.7639,6.7639,6.7639,6.7639,6.7639,6.7639,6.7639,6.7639,6.7639,6.7639,6.7639,6.7639,6.7639,6.7639,6.7639,6.7639,6.7639,6.7639,6.7639,6.7639,6.7639,6.7639,6.7639,6.7639,6.7639,6.7639,6.7639,6.7639,6.7639,6.7639,6.7639,6.7639,6.7639,6.7639,6.7639,6.7639,6.7639,6.7639,6.7639,6.7639,6.7639,6.7639,6.7639,6.7639,6.7639,6.7639,6.7639,6.7639,6.7639,6.7639,6.7639,6.7639,6.7639,6.7639,6.7639,6.7639,6.7639,6.7639,6.7639,6.7639,6.7639,6.7639,6.7639,6.7639,6.7639,6.7639,6.7639,6.7639,6.7639,6.7639,6.7639,6.7639,6.7639,6.7639,6.7639,6.7639,6.7639,6.7639,6.7639,6.7639,6.7639,6.7639,6.7639,6.7639,6.7639,6.7639,6.7639,6.7639,6.7639,6.7639,6.7639,6.7639,6.7639,6.7639,6.7639,6.7639,6.7639,6.7639,6.7639,6.7639,6.7639,6.7639,6.7639,6.7639,6.7639,6.7639,6.7639,6.7639,6.7639,6.7639,6.7639,6.7639,6.7639,6.7639,6.7639,6.7639,6.7639,6.7639,6.7639,6.7639,6.7639,6.7639,6.7639,6.7639,6.7639,6.7639,6.7639,6.7639,6.7639,6.7639,6.7639,6.7639,6.7639,6.7639,6.7639,6.7639,6.7639,6.7639,6.7639,6.7639,6.7639,6.7639,6.7639,6.7639,6.7639,6.7639,6.7639,6.7639,6.7639,6.7639,6.7639,6.7639,6.7639,6.7639,6.7639,6.7639,6.7639,6.7639,6.7639,6.7639,6.7639,6.7639,6.7639,6.7639,6.7639,6.7639,6.7639,6.7639,6.7639,6.7639,6.7639,6.7639,6.7639,6.7639,6.7639,6.7639,6.7639,6.7639,6.7639,6.7639,6.7639,6.7639,6.7639,6.7639,6.7639,6.7639,6.7639,6.7639,6.7639,6.7639,6.7639,6.7639,6.7639,6.7639,6.7639,6.7639,6.7639,6.7639,6.7639,6.7639,6.7639,6.7639,6.7639,6.7639,6.7639,6.7639,6.7639,6.7639,6.7639,6.7639,6.7639,6.7639,6.7639,6.7639,6.7639,6.7639,6.7639,6.7639,6.7639,6.7639,6.7639,6.7639,6.7639,6.7639,6.7639,6.7639,6.7639,6.7639,6.7639,6.7639,6.7639,6.7639,6.7639,6.7639,6.7639,6.7639,6.7639,6.7639,6.7639,6.7639,6.7639,6.7639,6.7639,6.7639,6.7639,6.7639,6.7639,6.7639,6.7639,6.7639,6.7639,6.7639,6.7639,6.7639,6.7639,6.7639,6.7639,6.7639,6.7639,6.7639,6.7639,6.7639,6.7639,6.7639,6.7639,6.7639,6.7639,6.7639,6.7639,6.7639,6.7639,6.7639,6.7639,6.7639,6.5751,6.5354,6.5033,6.4899,6.4774,6.4677,6.4592,6.4515,6.4431,6.4352,6.4278,6.4200,6.4134,6.4075,6.4019,6.3963,6.3904,6.3846,6.3783,6.3717,6.3652,6.3587,6.3522,6.3457,6.3412,6.3386,6.3357,6.3328,6.3302,6.3273,6.3247,6.3219,6.3192,6.3164,6.3140,6.3121,6.3102,6.3086,6.3067,6.3048,6.3029,6.3010,6.2991,6.2972,6.2953,6.2937,6.2918,6.2899,6.2880,6.2864,6.2845,6.2828,6.2809,6.2793,6.2779,6.2763,6.2746,6.2732,6.2716,6.2699,6.2692,6.2688,6.2683,6.2678,6.2676,6.2671,6.2667,6.2662,6.2657,6.2655,6.2650,6.2645,6.2641,6.2648,6.2655,6.2662,6.2667,6.2674,6.2681,6.2688,6.2692,6.2699,6.2706,6.2713,6.2718,6.2725,6.2730,6.2737,6.2744,6.2748,6.2756,6.2760,6.2767,6.2772,6.2779,6.2784,6.2791,6.2795,6.2802,6.2807,6.2814,6.2819,6.2824,6.2831,6.2835,6.2842,6.2847,6.2866,6.2894,6.2922,6.2951,6.2979,6.3007,6.3036,6.3064,6.3093,6.3121,6.3150,6.3178,6.3207,6.3235,6.3261,6.3302,6.3352,6.3405,6.3455,6.3489,6.3525,6.3558,6.3592,6.3626,6.3662,6.3696,6.3730,6.3766,6.3805,6.3865,6.3926,6.3987,6.4048,6.4104,6.4170,6.4227,6.4288,6.4357,6.4451
6.7584,6.7584,6.7584,6.7584,6.7584,6.7584,6.7584,6.7584,6.7584,6.7584,6.7584,6.7584,6.7584,6.7584,6.7584,6.7584,6.7584,6.7584,6.7584,6.7584,6.7584,6.7584,6.7584,6.7584,6.7584,6.7584,6.7584,6.7584,6.7584,6.7584,6.7584,6.7584,6.7584,6.7584,6.7584,6.7584,6.7584,6.7584,6.7584,6.7584,6.7584,6.7584,6.7584,6.7584,6.7584,6.7584,6.7584,6.7584,6.7584,6.7584,6.7584,6.7584,6.7584,6.7584,6.7584,6.7584,6.7584,6.7584,6.7584,6.7584,6.7584,6.7584,6.7584,6.7584,6.7584,6.7584,6.7584,6.7584,6.7584,6.7584,6.7584,6.7584,6.7584,6.7584,6.7584,6.7584,6.7584,6.7584,6.7584,6.7584,6.7584,6.7584,6.7584,6.7584,6.7584,6.7584,6.7584,6.7584,6.7584,6.7584,6.7584,6.7584,6.7584,6.7584,6.7584,6.7584,6.7584,6.7584,6.7584,6.7584,6.7584,6.7584,6.7584,6.7584,6.7584,6.7584,6.7584,6.7584,6.7584,6.7584,6.7584,6.7584,6.7584,6.7584,6.7584,6.7584,6.7584,6.7584,6.7584,6.7584,6.7584,6.7584,6.7584,6.7584,6.7584,6.7584,6.7584,6.7584,6.7584,6.7584,6.7584,6.7584,6.7584,6.7584,6.7584,6.7584,6.7584,6.7584,6.7584,6.7584,6.7584,6.7584,6.7584,6.7584,6.7584,6.7584,6.7584,6.7584,6.7584,6.7584,6.7584,6.7584,6.7584,6.7584,6.7584,6.7584,6.7584,6.7584,6.7584,6.7584,6.7584,6.7584,6.7584,6.7584,6.7584,6.7584,6.7584,6.7584,6.7584,6.7584,6.7584,6.7584,6.7584,6.7584,6.7584,6.7584,6.7584,6.7584,6.7584,6.7584,6.7584,6.7584,6.7584,6.7584,6.7584,6.7584,6.7584,6.7584,6.7584,6.7584,6.7584,6.7584,6.7584,6.7584,6.7584,6.7584,6.7584,6.7584,6.7584,6.7584,6.7584,6.7584,6.7584,6.7584,6.7584,6.7584,6.7584,6.7584,6.7584,6.7584,6.7584,6.7584,6.7584,6.7584,6.7584,6.7584,6.7584,6.7584,6.7584,6.7584,6.7584,6.7584,6.7584,6.7584,6.7584,6.7584,6.7584,6.7584,6.7584,6.7584,6.7584,6.7584,6.7584,6.7584,6.7584,6.7584,6.7584,6.7584,6.7584,6.7584,6.7584,6.7584,6.7584,6.7584,6.7584,6.7584,6.7584,6.7584,6.7584,6.7584,6.7584,6.7584,6.7584,6.7584,6.7584,6.7584,6.7584,6.7584,6.7584,6.7584,6.7584,6.7584,6.7584,6.7584,6.7584,6.7584,6.7584,6.7584,6.7584,6.7584,6.7584,6.7584,6.7584,6.7584,6.7584,6.7584,6.7584,6.7584,6.7584,6.7584,6.7584,6.5563,6.5169,6.4947,6.4819,6.4717,6.4637,6.4558,6.4483,6.4399,6.4325,6.4239,6.4163,6.4104,6.4048,6.3994,6.3933,6.3875,6.3809,6.3744,6.3679,6.3614,6.3549,6.3486,6.3421,6.3383,6.3359,6.3328,6.3302,6.3273,6.3247,6.3219,6.3192,6.3164,6.3145,6.3126,6.3107,6.3088,6.3069,6.3050,6.3031,6.3015,6.2996,6.2977,6.2958,6.2939,6.2920,6.2901,6.2885,6.2866,6.2849,6.2831,6.2814,6.2798,6.2781,6.2767,6.2751,6.2734,6.2720,6.2704,6.2688,6.2681,6.2678,6.2674,6.2669,6.2664,6.2660,6.2657,6.2653,6.2648,6.2643,6.2638,6.2638,6.2645,6.2653,6.2660,6.2664,6.2671,6.2678,6.2685,6.2690,6.2697,6.2704,6.2711,6.2716,6.2723,6.2730,6.2734,6.2741,6.2746,6.2753,6.2758,6.2765,6.2770,6.2777,6.2781,6.2788,6.2793,6.2800,6.2805,6.2812,6.2817,6.2824,6.2831,6.2840,6.2849,6.2861,6.2875,6.2899,6.2927,6.2955,6.2984,6.3010,6.3038,6.3067,6.3095,6.3123,6.3152,6.3180,6.3209,6.3238,6.3266,6.3314,6.3364,6.3414,6.3465,6.3503,6.3537,6.3573,6.3606,6.3640,6.3674,6.3710,6.3744,6.3778,6.3831,6.3892,6.3950,6.4014,6.4075,6.4131,6.4197,6.4254,6.4328,6.4416,6.4498
6.7538,6.7538,6.7538,6.7538,6.7538,6.7538,6.7538,6.7538,6.7538,6.7538,6.7538,6.7538,6.7538,6.7538,6.7538,6.7538,6.7538,6.7538,6.7538,6.7538,6.7538,6.7538,6.7538,6.7538,6.7538,6.7538,6.7538,6.7538,6.7538,6.7538,6.7538,6.7538,6.7538,6.7538,6.7538,6.7538,6.7538,6.7538,6.7538,6.7538,6.7538,6.7538,6.7538,6.7538,6.7538,6.7538,6.7538,6.7538,6.7538,6.7538,6.7538,6.7538,6.7538,6.7538,6.7538,6.7538,6.7538,6.7538,6.7538,6.7538,6.7538,6.7538,6.7538,6.7538,6.7538,6.7538,6.7538,6.7538,6.7538,6.7538,6.7538,6.7538,6.7538,6.7538,6.7538,6.7538,6.7538,6.7538,6.7538,6.7538,6.7538,6.7538,6.7538,6.7538,6.7538,6.7538,6.7538,6.7538,6.7538,6.7538,6.7538,6.7538,6.7538,6.7538,6.7538,6.7538,6.7538,6.7538,6.7538,6.7538,6.7538,6.7538,6.7538,6.7538,6.7538,6.7538,6.7538,6.7538,6.7538,6.7538,6.7538,6.7538,6.7538,6.7538,6.7538,6.7538,6.7538,6.7538,6.7538,6.7538,6.7538,6.7538,6.7538,6.7538,6.7538,6.7538,6.7538,6.7538,6.7538,6.7538,6.7538,6.7538,6.7538,6.7538,6.7538,6.7538,6.7538,6.7538,6.7538,6.7538,6.7538,6.7538,6.7538,6.7538,6.7538,6.7538,6.7538,6.7538,6.7538,6.7538,6.7538,6.7538,6.7538,6.7538,6.7538,6.7538,6.7538,6.7538,6.7538,6.7538,6.7538,6.7538,6.7538,6.7538,6.7538,6.7538,6.7538,6.7538,6.7538,6.7538,6.7538,6.7538,6.7538,6.7538,6.7538,6.7538,6.7538,6.7538,6.7538,6.7538,6.7538,6.7538,6.7538,6.7538,6.7538,6.7538,6.7538,6.7538,6.7538,6.7538,6.7538,6.7538,6.7538,6.7538,6.7538,6.7538,6.7538,6.7538,6.7538,6.7538,6.7538,6.7538,6.7538,6.7538,6.7538,6.7538,6.7538,6.7538,6.7538,6.7538,6.7538,6.7538,6.7538,6.7538,6.7538,6.7538,6.7538,6.7538,6.7538,6.7538,6.7538,6.7538,6.7538,6.7538,6.7538,6.7538,6.7538,6.7538,6.7538,6.7538,6.7538,6.7538,6.7538,6.7538,6.7538,6.7538,6.7538,6.7538,6.7538,6.7538,6.7538,6.7538,6.7538,6.7538,6.7538,6.7538,6.7538,6.7538,6.7538,6.7538,6.7538,6.7538,6.7538,6.7538,6.7538,6.7538,6.7538,6.7538,6.7538,6.7538,6.7538,6.7538,6.7538,6.7538,6.7538,6.7538,6.7538,6.7538,6.7538,6.7538,6.7538,6.7538,6.7538,6.7538,6.7538,6.7538,6.7538,6.7538,6.7538,6.7538,6.7538,6.7538,6.5379,6.4997,6.4869,6.4762,6.4687,6.4607,6.4528,6.4444,6.4370,6.4291,6.4212,6.4134,6.4075,6.4021,6.3963,6.3902,6.3836,6.3773,6.3708,6.3643,6.3578,6.3513,6.3448,6.3383,6.3359,6.3328,6.3302,6.3273,6.3247,6.3219,6.3192,6.3166,6.3147,6.3128,6.3109,6.3090,6.3074,6.3055,6.3036,6.3017,6.2998,6.2979,6.2960,6.2944,6.2925,6.2906,6.2887,6.2871,6.2852,6.2833,6.2817,6.2802,6.2786,6.2770,6.2756,6.2739,6.2723,6.2709,6.2692,6.2676,6.2671,6.2667,6.2662,6.2657,6.2655,6.2650,6.2645,6.2641,6.2636,6.2634,6.2636,6.2643,6.2650,6.2655,6.2662,6.2669,6.2676,6.2681,6.2688,6.2695,6.2702,6.2706,6.2713,6.2720,6.2727,6.2732,6.2739,6.2746,6.2751,6.2758,6.2763,6.2770,6.2774,6.2779,6.2786,6.2791,6.2798,6.2805,6.2817,6.2826,6.2835,6.2845,6.2854,6.2866,6.2875,6.2892,6.2908,6.2930,6.2958,6.2986,6.3015,6.3043,6.3071,6.3100,6.3128,6.3154,6.3183,6.3211,6.3240,6.3273,6.3326,6.3376,6.3426,6.3477,6.3517,6.3551,6.3585,6.3621,6.3655,6.3688,6.3722,6.3759,6.3797,6.3856,6.3916,6.3977,6.4038,6.4102,6.4163,6.4217,6.4293,6.4377,6.4468,6.4553
6.7481,6.7481,6.7481,6.7481,6.7481,6.7481,6.7481,6.7481,6.7481,6.7481,6.7481,6.7481,6.7481,6.7481,6.7481,6.7481,6.7481,6.7481,6.7481,6.7481,6.7481,6.7481,6.7481,6.7481,6.7481,6.7481,6.7481,6.7481,6.7481,6.7481,6.7481,6.7481,6.7481,6.7481,6.7481,6.7481,6.7481,6.7481,6.7481,6.7481,6.7481,6.7481,6.7481,6.7481,6.7481,6.7481,6.7481,6.7481,6.7481,6.7481,6.7481,6.7481,6.7481,6.7481,6.7481,6.7481,6.7481,6.7481,6.7481,6.7481,6.7481,6.7481,6.7481,6.7481,6.7481,6.7481,6.7481,6.7481,6.7481,6.7481,6.7481,6.7481,6.7481,6.7481,6.7481,6.7481,6.7481,6.7481,6.7481,6.7481,6.7481,6.7481,6.7481,6.7481,6.7481,6.7481,6.7481,6.7481,6.7481,6.7481,6.7481,6.7481,6.7481,6.7481,6.7481,6.7481,6.7481,6.7481,6.7481,6.7481,6.7481,6.7481,6.7481,6.7481,6.7481,6.7481,6.7481,6.7481,6.7481,6.7481,6.7481,6.7481,6.7481,6.7481,6.7481,6.7481,6.7481,6.7481,6.7481,6.7481,6.7481,6.7481,6.7481,6.7481,6.7481,6.7481,6.7481,6.7481,6.7481,6.7481,6.7481,6.7481,6.7481,6.7481,6.7481,6.7481,6.7481,6.7481,6.7481,6.7481,6.7481,6.7481,6.7481,6.7481,6.7481,6.7481,6.7481,6.7481,6.7481,6.7481,6.7481,6.7481,6.7481,6.7481,6.7481,6.7481,6.7481,6.7481,6.7481,6.7481,6.7481,6.7481,6.7481,6.7481,6.7481,6.7481,6.7481,6.7481,6.7481,6.7481,6.7481,6.7481,6.7481,6.7481,6.7481,6.7481,6.7481,6.7481,6.7481,6.7481,6.7481,6.7481,6.7481,6.7481,6.7481,6.7481,6.7481,6.7481,6.7481,6.7481,6.7481,6.7481,6.7481,6.7481,6.7481,6.7481,6.7481,6.7481,6.7481,6.7481,6.7481,6.7481,6.7481,6.7481,6.7481,6.7481,6.7481,6.7481,6.7481,6.7481,6.7481,6.7481,6.7481,6.7481,6.7481,6.7481,6.7481,6.7481,6.7481,6.7481,6.7481,6.7481,6.7481,6.7481,6.7481,6.7481,6.7481,6.7481,6.7481,6.7481,6.7481,6.7481,6.7481,6.7481,6.7481,6.7481,6.7481,6.7481,6.7481,6.7481,6.7481,6.7481,6.7481,6.7481,6.7481,6.7481,6.7481,6.7481,6.7481,6.7481,6.7481,6.7481,6.7481,6.7481,6.7481,6.7481,6.7481,6.7481,6.7481,6.7481,6.7481,6.7481,6.7481,6.7481,6.7481,6.7481,6.7481,6.7481,6.7481,6.7481,6.7481,6.7481,6.7481,6.7481,6.7481,6.7481,6.7481,6.7481,6.7481,6.7481,6.7481,6.7481,6.5820,6.5194,6.4912,6.4814,6.4727,6.4652,6.4567,6.4488,6.4414,6.4330,6.4251,6.4173,6.4104,6.4050,6.3994,6.3931,6.3865,6.3800,6.3734,6.3669,6.3604,6.3539,6.3474,6.3409,6.3357,6.3328,6.3302,6.3273,6.3247,6.3219,6.3192,6.3169,6.3152,6.3133,6.3114,6.3095,6.3076,6.3057,6.3038,6.3019,6.3003,6.2984,6.2965,6.2946,6.2927,6.2908,6.2892,6.2873,6.2854,6.2838,6.2821,6.2805,6.2791,6.2774,6.2758,6.2744,6.2727,6.2711,6.2697,6.2681,6.2664,6.2660,6.2655,6.2653,6.2648,6.2643,6.2638,6.2634,6.2631,6.2627,6.2634,6.2641,6.2648,6.2653,6.2660,6.2667,6.2674,6.2678,6.2685,6.2692,6.2699,6.2704,6.2711,6.2718,6.2725,6.2730,6.2737,6.2744,6.2748,6.2756,6.2760,6.2767,6.2772,6.2781,6.2791,6.2800,6.2812,6.2821,6.2831,6.2840,6.2849,6.2861,6.2871,6.2880,6.2894,6.2908,6.2925,6.2941,6.2960,6.2989,6.3017,6.3045,6.3074,6.3102,6.3131,6.3159,6.3188,6.3216,6.3245,6.3283,6.3338,6.3388,6.3438,6.3489,6.3529,6.3565,6.3599,6.3633,6.3669,6.3703,6.3737,6.3771,6.3822,6.3882,6.3943,6.4002,6.4065,6.4126,6.4183,6.4259,6.4342,6.4429,6.4518,6.4610
6.7430,6.7430,6.7430,6.7430,6.7430,6.7430,6.7430,6.7430,6.7430,6.7430,6.7430,6.7430,6.7430,6.7430,6.7430,6.7430,6.7430,6.7430,6.7430,6.7430,6.7430,6.7430,6.7430,6.7430,6.7430,6.7430,6.7430,6.7430,6.7430,6.7430,6.7430,6.7430,6.7430,6.7430,6.7430,6.7430,6.7430,6.7430,6.7430,6.7430,6.7430,6.7430,6.7430,6.7430,6.7430,6.7430,6.7430,6.7430,6.7430,6.7430,6.7430,6.7430,6.7430,6.7430,6.7430,6.7430,6.7430,6.7430,6.7430,6.7430,6.7430,6.7430,6.7430,6.7430,6.7430,6.7430,6.7430,6.7430,6.7430,6.7430,6.7430,6.7430,6.7430,6.7430,6.7430,6.7430,6.7430,6.7430,6.7430,6.7430,6.7430,6.7430,6.7430,6.7430,6.7430,6.7430,6.7430,6.7430,6.7430,6.7430,6.7430,6.7430,6.7430,6.7430,6.7430,6.7430,6.7430,6.7430,6.7430,6.7430,6.7430,6.7430,6.7430,6.7430,6.7430,6.7430,6.7430,6.7430,6.7430,6.7430,6.7430,6.7430,6.7430,6.7430,6.7430,6.7430,6.7430,6.7430,6.7430,6.7430,6.7430,6.7430,6.7430,6.7430,6.7430,6.7430,6.7430,6.7430,6.7430,6.7430,6.7430,6.7430,6.7430,6.7430,6.7430,6.7435,6.7435,6.7435,6.7435,6.7435,6.7435,6.7435,6.7435,6.7435,6.7435,6.7435,6.7435,6.7435,6.7435,6.7435,6.7435,6.7435,6.7435,6.7435,6.7435,6.7435,6.7435,6.7435,6.7435,6.7435,6.7435,6.7435,6.7435,6.7435,6.7435,6.7435,6.7435,6.7435,6.7435,6.7435,6.7435,6.7435,6.7435,6.7435,6.7435,6.7435,6.7435,6.7435,6.7435,6.7435,6.7435,6.7435,6.7435,6.7435,6.7435,6.7435,6.7435,6.7435,6.7435,6.7435,6.7435,6.7435,6.7435,6.7435,6.7435,6.7435,6.7435,6.7435,6.7435,6.7435,6.7435,6.7435,6.7435,6.7435,6.7435,6.7435,6.7435,6.7435,6.7435,6.7435,6.7435,6.7435,6.7435,6.7435,6.7435,6.7435,6.7435,6.7435,6.7435,6.7435,6.7435,6.7435,6.7435,6.7435,6.7435,6.7435,6.7435,6.7435,6.7435,6.7435,6.7435,6.7435,6.7435,6.7435,6.7435,6.7435,6.7435,6.7435,6.7435,6.7435,6.7435,6.7435,6.7435,6.7435,6.7435,6.7435,6.7435,6.7435,6.7435,6.7435,6.7435,6.7435,6.7435,6.7435,6.7435,6.7435,6.7435,6.7435,6.7435,6.7435,6.7435,6.7435,6.7435,6.7435,6.7435,6.7435,6.7435,6.7435,6.7435,6.7435,6.7435,6.7435,6.7435,6.7435,6.7435,6.7435,6.7435,6.7435,6.7435,6.7435,6.7435,6.7435,6.7435,6.5748,6.5005,6.4854,6.4779,6.4694,6.4620,6.4535,6.4453,6.4379,6.4296,6.4217,6.4138,6.4082,6.4021,6.3958,6.3892,6.3826,6.3761,6.3696,6.3631,6.3568,6.3503,6.3438,6.3374,6.3328,6.3302,6.3273,6.3247,6.3219,6.3192,6.3173,6.3154,6.3135,6.3116,6.3097,6.3081,6.3062,6.3043,6.3024,6.3005,6.2986,6.2967,6.2948,6.2932,6.2913,6.2894,6.2875,6.2859,6.2842,6.2826,6.2809,6.2793,6.2779,6.2763,6.2746,6.2732,6.2716,6.2699,6.2685,6.2669,6.2655,6.2650,6.2645,6.2641,6.2636,6.2634,6.2629,6.2624,6.2624,6.2631,6.2638,6.2645,6.2650,6.2657,6.2664,6.2671,6.2676,6.2683,6.2690,6.2697,6.2702,6.2709,6.2716,6.2723,6.2727,6.2734,6.2741,6.2746,6.2756,6.2767,6.2777,6.2786,6.2795,6.2805,6.2817,6.2826,6.2835,6.2845,6.2854,6.2866,6.2875,6.2885,6.2894,6.2911,6.2927,6.2941,6.2958,6.2974,6.2993,6.3022,6.3050,6.3076,6.3105,6.3133,6.3161,6.3190,6.3219,6.3247,6.3295,6.3347,6.3398,6.3448,6.3501,6.3544,6.3578,6.3614,6.3647,6.3681,6.3717,6.3751,6.3788,6.3848,6.3909,6.3970,6.4026,6.4092,6.4153,6.4219,6.4313,6.4394,6.4488,6.4570,6.4664
6.7384,6.7384,6.7384,6.7384,6.7384,6.7384,6.7384,6.7384,6.7384,6.7384,6.7384,6.7384,6.7384,6.7384,6.7384,6.7384,6.7384,6.7384,6.7384,6.7384,6.7384,6.7384,6.7384,6.7384,6.7384,6.7384,6.7384,6.7384,6.7384,6.7384,6.7384,6.7384,6.7384,6.7384,6.7384,6.7384,6.7384,6.7384,6.7384,6.7384,6.7384,6.7384,6.7384,6.7384,6.7384,6.7384,6.7384,6.7384,6.7384,6.7384,6.7384,6.7384,6.7384,6.7384,6.7384,6.7384,6.7384,6.7384,6.7384,6.7384,6.7384,6.7384,6.7384,6.7384,6.7384,6.7384,6.7384,6.7384,6.7384,6.7384,6.7384,6.7384,6.7384,6.7384,6.7384,6.7384,6.7384,6.7384,6.7384,6.7384,6.7384,6.7384,6.7384,6.7384,6.7384,6.7384,6.7384,6.7384,6.7384,6.7384,6.7384,6.7384,6.7384,6.7384,6.7384,6.7384,6.7384,6.7384,6.7384,6.7384,6.7384,6.7384,6.7384,6.7384,6.7384,6.7384,6.7384,6.7384,6.7384,6.7384,6.7384,6.7384,6.7384,6.7384,6.7384,6.7384,6.7384,6.7384,6.7384,6.7384,6.7384,6.7384,6.7384,6.7384,6.7384,6.7384,6.7384,6.7384,6.7384,6.7384,6.7384,6.7384,6.7384,6.7384,6.7384,6.7384,6.7384,6.7384,6.7384,6.7384,6.7384,6.7384,6.7384,6.7384,6.7384,6.7384,6.7384,6.7384,6.7384,6.7384,6.7384,6.7384,6.7384,6.7384,6.7384,6.7384,6.7384,6.7384,6.7384,6.7384,6.7384,6.7384,6.7384,6.7384,6.7384,6.7384,6.7384,6.7384,6.7384,6.7384,6.7384,6.7384,6.7384,6.7384,6.7384,6.7384,6.7384,6.7384,6.7384,6.7384,6.7384,6.7384,6.7384,6.7384,6.7384,6.7384,6.7384,6.7384,6.7384,6.7384,6.7384,6.7384,6.7384,6.7384,6.7384,6.7384,6.7384,6.7384,6.7384,6.7384,6.7384,6.7384,6.7384,6.7384,6.7384,6.7384,6.7384,6.7384,6.7384,6.7384,6.7384,6.7384,6.7384,6.7384,6.7384,6.7384,6.7384,6.7384,6.7384,6.7384,6.7384,6.7384,6.7384,6.7384,6.7384,6.7384,6.7384,6.7384,6.7384,6.7384,6.7384,6.7384,6.7384,6.7384,6.7384,6.7384,6.7384,6.7384,6.7384,6.7384,6.7384,6.7384,6.7384,6.7384,6.7384,6.7384,6.7384,6.7384,6.7384,6.7384,6.7384,6.7384,6.7384,6.7384,6.7384,6.7384,6.7384,6.7384,6.7384,6.7384,6.7384,6.7384,6.7384,6.7384,6.7384,6.7384,6.7384,6.7384,6.7384,6.7384,6.7384,6.7384,6.7384,6.7384,6.7384,6.7384,6.7384,6.7384,6.7384,6.7384,6.7384,6.7384,6.7384,6.7384,6.5676,6.4927,6.4829,6.4749,6.4664,6.4580,6.4505,6.4426,6.4347,6.4266,6.4187,6.4111,6.4050,6.3984,6.3919,6.3856,6.3790,6.3725,6.3659,6.3594,6.3529,6.3465,6.3400,6.3338,6.3302,6.3273,6.3247,6.3219,6.3195,6.3176,6.3159,6.3140,6.3121,6.3102,6.3083,6.3064,6.3045,6.3026,6.3010,6.2991,6.2972,6.2953,6.2934,6.2915,6.2897,6.2880,6.2861,6.2845,6.2831,6.2814,6.2798,6.2781,6.2767,6.2751,6.2734,6.2720,6.2704,6.2688,6.2674,6.2657,6.2643,6.2638,6.2634,6.2631,6.2627,6.2622,6.2617,6.2622,6.2629,6.2636,6.2643,6.2648,6.2655,6.2662,6.2669,6.2674,6.2681,6.2688,6.2695,6.2699,6.2706,6.2713,6.2720,6.2730,6.2741,6.2751,6.2760,6.2772,6.2781,6.2791,6.2800,6.2812,6.2821,6.2831,6.2840,6.2849,6.2861,6.2871,6.2880,6.2889,6.2899,6.2911,6.2927,6.2944,6.2960,6.2974,6.2991,6.3007,6.3024,6.3052,6.3081,6.3109,6.3138,6.3166,6.3195,6.3223,6.3257,6.3307,6.3359,6.3409,6.3460,6.3513,6.3558,6.3592,6.3626,6.3662,6.3696,6.3730,6.3763,6.3814,6.3875,6.3933,6.3994,6.4053,6.4119,6.4185,6.4278,6.4365,6.4453,6.4540,6.4630,6.4719
6.7335,6.7335,6.7335,6.7335,6.7335,6.7335,6.7335,6.7335,6.7335,6.7335,6.7335,6.7335,6.7335,6.7335,6.7335,6.7335,6.7335,6.7335,6.7335,6.7335,6.7335,6.7335,6.7335,6.7335,6.7335,6.7335,6.7335,6.7335,6.7335,6.7335,6.7335,6.7335,6.7335,6.7335,6.7335,6.7335,6.7335,6.7335,6.7335,6.7335,6.7335,6.7335,6.7335,6.7335,6.7335,6.7335,6.7335,6.7335,6.7335,6.7335,6.7335,6.7335,6.7335,6.7335,6.7335,6.7335,6.7335,6.7335,6.7335,6.7335,6.7335,6.7335,6.7335,6.7335,6.7335,6.7335,6.7335,6.7335,6.7335,6.7335,6.7335,6.7335,6.7335,6.7335,6.7335,6.7335,6.7335,6.7335,6.7335,6.7335,6.7335,6.7335,6.7335,6.7335,6.7335,6.7335,6.7335,6.7335,6.7335,6.7335,6.7335,6.7335,6.7335,6.7335,6.7335,6.7335,6.7335,6.7335,6.7335,6.7335,6.7335,6.7335,6.7335,6.7335,6.7335,6.7335,6.7335,6.7335,6.7335,6.7335,6.7335,6.7335,6.7335,6.7335,6.7335,6.7335,6.7335,6.7335,6.7335,6.7335,6.7335,6.7335,6.7335,6.7335,6.7335,6.7335,6.7335,6.7335,6.7335,6.7335,6.7335,6.7335,6.7335,6.7335,6.7335,6.7335,6.7335,6.7335,6.7335,6.7335,6.7335,6.7335,6.7335,6.7335,6.7335,6.7335,6.7335,6.7335,6.7335,6.7335,6.7335,6.7335,6.7335,6.7335,6.7335,6.7335,6.7335,6.7335,6.7335,6.7335,6.7335,6.7335,6.7335,6.7335,6.7335,6.7335,6.7335,6.7335,6.7335,6.7335,6.7335,6.7335,6.7335,6.7335,6.7335,6.7335,6.7335,6.7335,6.7335,6.7335,6.7335,6.7335,6.7335,6.7335,6.7335,6.7335,6.7335,6.7335,6.7335,6.7335,6.7335,6.7335,6.7335,6.7335,6.7335,6.7335,6.7335,6.7335,6.7335,6.7335,6.7335,6.7335,6.7335,6.7335,6.7335,6.7335,6.7335,6.7335,6.7335,6.7335,6.7335,6.7335,6.7335,6.7335,6.7335,6.7335,6.7335,6.7335,6.7335,6.7335,6.7335,6.7335,6.7335,6.7335,6.7335,6.7335,6.7335,6.7335,6.7335,6.7335,6.7335,6.7335,6.7335,6.7335,6.7335,6.7335,6.7335,6.7335,6.7335,6.7335,6.7335,6.7335,6.7335,6.7335,6.7335,6.7335,6.7335,6.7335,6.7335,6.7335,6.7335,6.7335,6.7335,6.7335,6.7335,6.7335,6.7335,6.7335,6.7335,6.7335,6.7335,6.7335,6.7335,6.7335,6.7335,6.7335,6.7335,6.7335,6.7335,6.7335,6.7335,6.7335,6.7335,6.7335,6.7335,6.7335,6.7335,6.7335,6.7335,6.7335,6.7335,6.7335,6.7335,6.7335,6.7335,6.5609,6.4952,6.4829,6.4737,6.4652,6.4567,6.4483,6.4399,6.4315,6.4237,6.4156,6.4082,6.4016,6.3948,6.3882,6.3817,6.3751,6.3686,6.3621,6.3556,6.3491,6.3426,6.3366,6.3302,6.3273,6.3247,6.3219,6.3200,6.3180,6.3161,6.3142,6.3123,6.3105,6.3088,6.3069,6.3050,6.3031,6.3012,6.2993,6.2974,6.2955,6.2939,6.2920,6.2901,6.2882,6.2866,6.2849,6.2833,6.2817,6.2802,6.2786,6.2770,6.2756,6.2739,6.2723,6.2709,6.2692,6.2676,6.2660,6.2645,6.2634,6.2629,6.2624,6.2620,6.2615,6.2615,6.2620,6.2627,6.2634,6.2641,6.2645,6.2653,6.2660,6.2667,6.2671,6.2678,6.2685,6.2692,6.2699,6.2711,6.2720,6.2732,6.2744,6.2756,6.2765,6.2777,6.2786,6.2795,6.2805,6.2817,6.2826,6.2835,6.2845,6.2854,6.2866,6.2875,6.2885,6.2894,6.2904,6.2915,6.2927,6.2944,6.2960,6.2977,6.2991,6.3007,6.3024,6.3041,6.3057,6.3083,6.3112,6.3140,6.3169,6.3197,6.3226,6.3266,6.3321,6.3369,6.3421,6.3472,6.3522,6.3573,6.3606,6.3640,6.3674,6.3710,6.3744,6.3778,6.3839,6.3899,6.3960,6.4019,6.4085,6.4151,6.4239,6.4330,6.4419,6.4501,6.4590,6.4677,6.4772
6.7284,6.7284,6.7284,6.7284,6.7284,6.7284,6.7284,6.7284,6.7284,6.7284,6.7284,6.7284,6.7284,6.7284,6.7284,6.7284,6.7284,6.7284,6.7284,6.7284,6.7284,6.7284,6.7284,6.7284,6.7284,6.7284,6.7284,6.7284,6.7284,6.7284,6.7284,6.7284,6.7284,6.7284,6.7284,6.7284,6.7284,6.7284,6.7284,6.7284,6.7284,6.7284,6.7284,6.7284,6.7284,6.7284,6.7284,6.7284,6.7284,6.7284,6.7284,6.7284,6.7284,6.7284,6.7284,6.7284,6.7284,6.7284,6.7284,6.7284,6.7284,6.7284,6.7284,6.7284,6.7284,6.7284,6.7284,6.7284,6.7284,6.7284,6.7284,6.7284,6.7284,6.7284,6.7284,6.7284,6.7284,6.7284,6.7284,6.7284,6.7284,6.7284,6.7284,6.7284,6.7284,6.7284,6.7284,6.7284,6.7284,6.7284,6.7284,6.7284,6.7284,6.7284,6.7284,6.7284,6.7284,6.7284,6.7284,6.7284,6.7284,6.7284,6.7284,6.7284,6.7284,6.7284,6.7284,6.7284,6.7284,6.7284,6.7284,6.7284,6.7284,6.7284,6.7284,6.7284,6.7284,6.7284,6.7284,6.7284,6.7284,6.7284,6.7284,6.7284,6.7284,6.7284,6.7284,6.7284,6.7284,6.7284,6.7284,6.7284,6.7284,6.7284,6.7284,6.7284,6.7284,6.7284,6.7284,6.7284,6.7284,6.7284,6.7284,6.7284,6.7284,6.7284,6.7284,6.7284,6.7284,6.7284,6.7284,6.7284,6.7284,6.7284,6.7284,6.7284,6.7284,6.7284,6.7284,6.7284,6.7284,6.7284,6.7284,6.7284,6.7284,6.7284,6.7284,6.7284,6.7284,6.7284,6.7284,6.7284,6.7284,6.7284,6.7284,6.7284,6.7284,6.7284,6.7284,6.7284,6.7284,6.7284,6.7284,6.7284,6.7284,6.7284,6.7284,6.7284,6.7284,6.7284,6.7284,6.7284,6.7284,6.7284,6.7284,6.7284,6.7284,6.7284,6.7284,6.7284,6.7284,6.7284,6.7284,6.7284,6.7284,6.7284,6.7284,6.7284,6.7284,6.7284,6.7284,6.7284,6.7284,6.7284,6.7284,6.7284,6.7284,6.7284,6.7284,6.7284,6.7284,6.7284,6.7284,6.7284,6.7284,6.7284,6.7284,6.7284,6.7284,6.7284,6.7284,6.7284,6.7284,6.7284,6.7284,6.7284,6.7284,6.7284,6.7284,6.7284,6.7284,6.7284,6.7284,6.7284,6.7284,6.7284,6.7284,6.7284,6.7284,6.7284,6.7284,6.7284,6.7284,6.7284,6.7284,6.7284,6.7284,6.7284,6.7284,6.7284,6.7284,6.7284,6.7284,6.7284,6.7284,6.7284,6.7284,6.7284,6.7284,6.7284,6.7284,6.7284,6.7284,6.7284,6.7284,6.7284,6.7284,6.7284,6.7284,6.7284,6.7284,6.7284,6.7284,6.7284,6.7284,6.7284,6.5538,6.4965,6.4817,6.4732,6.4647,6.4563,6.4483,6.4399,6.4310,6.4227,6.4141,6.4067,6.3992,6.3919,6.3846,6.3778,6.3715,6.3650,6.3585,6.3520,6.3455,6.3390,6.3326,6.3273,6.3247,6.3221,6.3202,6.3183,6.3164,6.3147,6.3128,6.3109,6.3090,6.3071,6.3052,6.3033,6.3017,6.2998,6.2979,6.2960,6.2941,6.2922,6.2904,6.2887,6.2868,6.2854,6.2838,6.2821,6.2805,6.2791,6.2774,6.2758,6.2744,6.2727,6.2711,6.2697,6.2681,6.2664,6.2648,6.2634,6.2622,6.2617,6.2613,6.2610,6.2610,6.2617,6.2624,6.2631,6.2636,6.2643,6.2650,6.2657,6.2662,6.2669,6.2681,6.2692,6.2702,6.2713,6.2725,6.2737,6.2748,6.2760,6.2770,6.2781,6.2791,6.2800,6.2809,6.2821,6.2831,6.2840,6.2849,6.2861,6.2871,6.2880,6.2889,6.2899,6.2911,6.2920,6.2930,6.2944,6.2960,6.2977,6.2993,6.3010,6.3024,6.3041,6.3057,6.3074,6.3090,6.3116,6.3142,6.3171,6.3200,6.3228,6.3278,6.3333,6.3381,6.3431,6.3484,6.3534,6.3585,6.3618,6.3655,6.3688,6.3722,6.3759,6.3805,6.3865,6.3926,6.3987,6.4045,6.4116,6.4207,6.4291,6.4379,6.4466,6.4555,6.4642,6.4732,6.4827
6.7227,6.7227,6.7227,6.7227,6.7227,6.7227,6.7227,6.7227,6.7227,6.7227,6.7227,6.7227,6.7227,6.7227,6.7227,6.7227,6.7227,6.7227,6.7227,6.7227,6.7227,6.7227,6.7227,6.7227,6.7227,6.7227,6.7227,6.7227,6.7227,6.7227,6.7227,6.7227,6.7227,6.7227,6.7227,6.7227,6.7227,6.7227,6.7227,6.7227,6.7227,6.7227,6.7227,6.7227,6.7227,6.7227,6.7227,6.7227,6.7227,6.7227,6.7227,6.7227,6.7227,6.7227,6.7227,6.7227,6.7227,6.7227,6.7227,6.7227,6.7227,6.7227,6.7227,6.7227,6.7227,6.7227,6.7227,6.7227,6.7227,6.7227,6.7227,6.7227,6.7227,6.7227,6.7227,6.7227,6.7227,6.7227,6.7227,6.7227,6.7227,6.7227,6.7227,6.7227,6.7227,6.7227,6.7227,6.7227,6.7227,6.7227,6.7227,6.7227,6.7227,6.7227,6.7227,6.7227,6.7227,6.7227,6.7227,6.7227,6.7227,6.7227,6.7227,6.7227,6.7227,6.7227,6.7227,6.7227,6.7227,6.7227,6.7227,6.7227,6.7227,6.7227,6.7227,6.7227,6.7227,6.7227,6.7227,6.7227,6.7227,6.7227,6.7227,6.7227,6.7227,6.7227,6.7227,6.7227,6.7227,6.7227,6.7227,6.7227,6.7227,6.7227,6.7227,6.7227,6.7227,6.7227,6.7227,6.7227,6.7227,6.7227,6.7227,6.7227,6.7227,6.7227,6.7227,6.7227,6.7227,6.7227,6.7227,6.7227,6.7227,6.7227,6.7227,6.7227,6.7227,6.7227,6.7227,6.7227,6.7227,6.7227,6.7227,6.7227,6.7227,6.7227,6.7227,6.7227,6.7227,6.7227,6.7227,6.7227,6.7227,6.7227,6.7227,6.7227,6.7227,6.7227,6.7227,6.7227,6.7227,6.7227,6.7227,6.7227,6.7227,6.7227,6.7227,6.7227,6.7227,6.7227,6.7227,6.7227,6.7227,6.7227,6.7227,6.7227,6.7227,6.7227,6.7227,6.7227,6.7227,6.7227,6.7227,6.7227,6.7227,6.7227,6.7227,6.7227,6.7227,6.7227,6.7227,6.7227,6.7227,6.7227,6.7227,6.7227,6.7227,6.7227,6.7227,6.7227,6.7227,6.7227,6.7227,6.7227,6.7227,6.7227,6.7227,6.7227,6.7227,6.7227,6.7227,6.7227,6.7227,6.7227,6.7227,6.7227,6.7227,6.7227,6.7227,6.7227,6.7227,6.7227,6.7227,6.7227,6.7227,6.7227,6.7227,6.7227,6.7227,6.7227,6.7227,6.7227,6.7227,6.7227,6.7227,6.7227,6.7227,6.7227,6.7227,6.7227,6.7227,6.7227,6.7227,6.7227,6.7227,6.7227,6.7227,6.7227,6.7227,6.7227,6.7227,6.7227,6.7227,6.7227,6.7227,6.7227,6.7227,6.7227,6.7227,6.7227,6.7227,6.7227,6.7227,6.7227,6.7227,6.7227,6.7227,6.5461,6.4990,6.4817,6.4732,6.4642,6.4563,6.4473,6.4387,6.4308,6.4219,6.4136,6.4065,6.3989,6.3916,6.3841,6.3768,6.3696,6.3621,6.3549,6.3481,6.3417,6.3352,6.3288,6.3247,6.3226,6.3207,6.3188,6.3169,6.3150,6.3131,6.3112,6.3093,6.3076,6.3057,6.3038,6.3019,6.3000,6.2981,6.2963,6.2944,6.2927,6.2908,6.2889,6.2873,6.2857,6.2842,6.2826,6.2809,6.2793,6.2779,6.2763,6.2746,6.2732,6.2716,6.2699,6.2685,6.2669,6.2653,6.2636,6.2622,6.2613,6.2608,6.2603,6.2608,6.2615,6.2622,6.2629,6.2634,6.2641,6.2650,6.2662,6.2671,6.2683,6.2695,6.2706,6.2718,6.2730,6.2739,6.2751,6.2763,6.2774,6.2784,6.2795,6.2805,6.2814,6.2826,6.2835,6.2845,6.2854,6.2866,6.2875,6.2885,6.2894,6.2904,6.2915,6.2925,6.2934,6.2944,6.2960,6.2977,6.2993,6.3010,6.3026,6.3043,6.3057,6.3074,6.3090,6.3107,6.3123,6.3147,6.3176,6.3204,6.3240,6.3290,6.3340,6.3393,6.3443,6.3496,6.3546,6.3597,6.3633,6.3667,6.3703,6.3737,6.3771,6.3831,6.3892,6.3950,6.4011,6.4087,6.4168,6.4256,6.4350,6.4431,6.4525,6.4607,6.4702,6.4792,6.4874
6.7181,6.7181,6.7181,6.7181,6.7181,6.7181,6.7181,6.7181,6.7181,6.7181,6.7181,6.7181,6.7181,6.7181,6.7181,6.7181,6.7181,6.7181,6.7181,6.7181,6.7181,6.7181,6.7181,6.7181,6.7181,6.7181,6.7181,6.7181,6.7181,6.7181,6.7181,6.7181,6.7181,6.7181,6.7181,6.7181,6.7181,6.7181,6.7181,6.7181,6.7181,6.7181,6.7181,6.7181,6.7181,6.7181,6.7181,6.7181,6.7181,6.7181,6.7181,6.7181,6.7181,6.7181,6.7181,6.7181,6.7181,6.7181,6.7181,6.7181,6.7181,6.7181,6.7181,6.7181,6.7181,6.7181,6.7181,6.7181,6.7181,6.7181,6.7181,6.7181,6.7181,6.7181,6.7181,6.7181,6.7181,6.7181,6.7181,6.7181,6.7181,6.7181,6.7181,6.7181,6.7181,6.7181,6.7181,6.7181,6.7181,6.7181,6.7181,6.7181,6.7181,6.7181,6.7181,6.7181,6.7181,6.7181,6.7181,6.7181,6.7181,6.7181,6.7181,6.7181,6.7181,6.7181,6.7181,6.7181,6.7181,6.7181,6.7181,6.7181,6.7181,6.7181,6.7181,6.7181,6.7181,6.7181,6.7181,6.7181,6.7181,6.7181,6.7181,6.7181,6.7181,6.7181,6.7181,6.7181,6.7181,6.7181,6.7181,6.7181,6.7181,6.7181,6.7181,6.7181,6.7181,6.7181,6.7181,6.7181,6.7181,6.7181,6.7181,6.7181,6.7181,6.7181,6.7181,6.7181,6.7181,6.7181,6.7181,6.7181,6.7181,6.7181,6.7181,6.7181,6.7181,6.7181,6.7181,6.7181,6.7181,6.7181,6.7181,6.7181,6.7181,6.7181,6.7181,6.7181,6.7181,6.7181,6.7181,6.7181,6.7181,6.7181,6.7181,6.7181,6.7181,6.7181,6.7181,6.7181,6.7181,6.7181,6.7181,6.7181,6.7181,6.7181,6.7181,6.7181,6.7181,6.7181,6.7181,6.7181,6.7181,6.7181,6.7181,6.7181,6.7181,6.7181,6.7181,6.7181,6.7181,6.7181,6.7181,6.7181,6.7181,6.7181,6.7181,6.7181,6.7181,6.7181,6.7181,6.7181,6.7181,6.7181,6.7181,6.7181,6.7181,6.7181,6.7181,6.7181,6.7181,6.7181,6.7181,6.7181,6.7181,6.7181,6.7181,6.7181,6.7181,6.7181,6.7181,6.7181,6.7181,6.7181,6.7181,6.7181,6.7181,6.7181,6.7181,6.7181,6.7181,6.7181,6.7181,6.7181,6.7181,6.7181,6.7181,6.7181,6.7181,6.7181,6.7181,6.7181,6.7181,6.7181,6.7181,6.7181,6.7181,6.7181,6.7181,6.7181,6.7181,6.7181,6.7181,6.7181,6.7181,6.7181,6.7181,6.7181,6.7181,6.7181,6.7181,6.7181,6.7181,6.7181,6.7181,6.7181,6.7181,6.7181,6.7181,6.7181,6.7181,6.7181,6.7181,6.7181,6.7181,6.7181,6.7181,6.7181,6.5390,6.5010,6.4807,6.4724,6.4635,6.4555,6.4471,6.4382,6.4298,6.4214,6.4134,6.4063,6.3987,6.3914,6.3839,6.3766,6.3693,6.3618,6.3546,6.3472,6.3400,6.3328,6.3254,6.3230,6.3211,6.3192,6.3173,6.3154,6.3135,6.3116,6.3097,6.3078,6.3059,6.3041,6.3022,6.3005,6.2986,6.2967,6.2948,6.2930,6.2911,6.2892,6.2878,6.2861,6.2845,6.2831,6.2814,6.2798,6.2781,6.2767,6.2751,6.2734,6.2720,6.2704,6.2688,6.2674,6.2657,6.2641,6.2624,6.2610,6.2601,6.2601,6.2606,6.2613,6.2620,6.2631,6.2643,6.2653,6.2664,6.2676,6.2688,6.2699,6.2711,6.2720,6.2732,6.2744,6.2756,6.2767,6.2779,6.2788,6.2800,6.2809,6.2819,6.2831,6.2840,6.2849,6.2859,6.2871,6.2880,6.2889,6.2899,6.2911,6.2920,6.2930,6.2939,6.2948,6.2963,6.2977,6.2993,6.3010,6.3026,6.3043,6.3059,6.3076,6.3090,6.3107,6.3123,6.3140,6.3157,6.3178,6.3207,6.3249,6.3302,6.3352,6.3405,6.3455,6.3505,6.3558,6.3609,6.3647,6.3681,6.3715,6.3751,6.3797,6.3856,6.3916,6.3980,6.4053,6.4138,6.4222,6.4310,6.4397,6.4491,6.4572,6.4662,6.4754,6.4857,6.4987
6.7133,6.7133,6.7133,6.7133,6.7133,6.7133,6.7133,6.7133,6.7133,6.7133,6.7133,6.7133,6.7133,6.7133,6.7133,6.7133,6.7133,6.7133,6.7133,6.7133,6.7133,6.7133,6.7133,6.7133,6.7133,6.7133,6.7133,6.7133,6.7133,6.7133,6.7133,6.7133,6.7133,6.7133,6.7133,6.7133,6.7133,6.7133,6.7133,6.7133,6.7133,6.7133,6.7133,6.7133,6.7133,6.7133,6.7133,6.7133,6.7133,6.7133,6.7133,6.7133,6.7133,6.7133,6.7133,6.7133,6.7133,6.7133,6.7133,6.7133,6.7133,6.7133,6.7133,6.7133,6.7133,6.7133,6.7133,6.7133,6.7133,6.7133,6.7133,6.7133,6.7133,6.7133,6.7133,6.7133,6.7133,6.7133,6.7133,6.7133,6.7133,6.7133,6.7133,6.7133,6.7133,6.7133,6.7133,6.7133,6.7133,6.7133,6.7133,6.7133,6.7133,6.7133,6.7133,6.7133,6.7133,6.7133,6.7133,6.7133,6.7133,6.7133,6.7133,6.7133,6.7133,6.7133,6.7133,6.7133,6.7133,6.7133,6.7133,6.7133,6.7133,6.7133,6.7133,6.7133,6.7133,6.7133,6.7133,6.7133,6.7133,6.7133,6.7133,6.7133,6.7133,6.7133,6.7133,6.7133,6.7133,6.7133,6.7133,6.7133,6.7133,6.7133,6.7133,6.7133,6.7133,6.7133,6.7133,6.7133,6.7133,6.7133,6.7133,6.7133,6.7133,6.7133,6.7133,6.7133,6.7133,6.7133,6.7133,6.7133,6.7133,6.7133,6.7133,6.7133,6.7133,6.7133,6.7133,6.7133,6.7133,6.7133,6.7133,6.7133,6.7133,6.7133,6.7133,6.7133,6.7133,6.7133,6.7133,6.7133,6.7133,6.7133,6.7133,6.7133,6.7133,6.7133,6.7133,6.7133,6.7133,6.7133,6.7133,6.7133,6.7133,6.7133,6.7133,6.7133,6.7133,6.7133,6.7133,6.7133,6.7133,6.7133,6.7133,6.7133,6.7133,6.7133,6.7133,6.7133,6.7133,6.7133,6.7133,6.7133,6.7133,6.7133,6.7133,6.7133,6.7133,6.7133,6.7133,6.7133,6.7133,6.7133,6.7133,6.7133,6.7133,6.7133,6.7133,6.7133,6.7133,6.7133,6.7133,6.7133,6.7133,6.7133,6.7133,6.7133,6.7133,6.7133,6.7133,6.7133,6.7133,6.7133,6.7133,6.7133,6.7133,6.7133,6.7133,6.7133,6.7133,6.7133,6.7133,6.7133,6.7133,6.7133,6.7133,6.7133,6.7133,6.7133,6.7133,6.7133,6.7133,6.7133,6.7133,6.7133,6.7133,6.7133,6.7133,6.7133,6.7133,6.7133,6.7133,6.7133,6.7133,6.7133,6.7133,6.7133,6.7133,6.7133,6.7133,6.7133,6.7133,6.7133,6.7133,6.7133,6.7133,6.7133,6.7133,6.7133,6.7133,6.7133,6.7133,6.7133,6.7133,6.7133,6.7133,6.7133,6.7133,6.5318,6.5025,6.4799,6.4719,6.4630,6.4545,6.4461,6.4377,6.4293,6.4210,6.4131,6.4058,6.3984,6.3911,6.3836,6.3763,6.3688,6.3616,6.3544,6.3469,6.3400,6.3326,6.3273,6.3245,6.3226,6.3207,6.3190,6.3171,6.3152,6.3133,6.3114,6.3095,6.3076,6.3057,6.3038,6.3019,6.3000,6.2981,6.2963,6.2944,6.2925,6.2904,6.2887,6.2868,6.2852,6.2835,6.2819,6.2802,6.2784,6.2767,6.2751,6.2734,6.2716,6.2699,6.2683,6.2667,6.2648,6.2631,6.2615,6.2599,6.2601,6.2613,6.2622,6.2634,6.2645,6.2657,6.2669,6.2681,6.2690,6.2702,6.2713,6.2725,6.2737,6.2748,6.2758,6.2770,6.2781,6.2793,6.2805,6.2814,6.2824,6.2833,6.2845,6.2854,6.2864,6.2875,6.2885,6.2894,6.2904,6.2915,6.2925,6.2934,6.2944,6.2953,6.2965,6.2979,6.2993,6.3010,6.3026,6.3043,6.3059,6.3076,6.3093,6.3109,6.3123,6.3140,6.3157,6.3173,6.3190,6.3211,6.3261,6.3314,6.3364,6.3414,6.3467,6.3517,6.3570,6.3621,6.3662,6.3696,6.3730,6.3763,6.3822,6.3882,6.3943,6.4016,6.4104,6.4187,6.4281,6.4362,6.4451,6.4538,6.4632,6.4742,6.4869,6.4995,6.5116
6.7082,6.7082,6.7082,6.7082,6.7082,6.7082,6.7082,6.7082,6.7082,6.7082,6.7082,6.7082,6.7082,6.7082,6.7082,6.7082,6.7082,6.7082,6.7082,6.7082,6.7082,6.7082,6.7082,6.7082,6.7082,6.7082,6.7082,6.7082,6.7082,6.7082,6.7082,6.7082,6.7082,6.7082,6.7082,6.7082,6.7082,6.7082,6.7082,6.7082,6.7082,6.7082,6.7082,6.7082,6.7082,6.7082,6.7082,6.7082,6.7082,6.7082,6.7082,6.7082,6.7082,6.7082,6.7082,6.7082,6.7082,6.7082,6.7082,6.7082,6.7082,6.7082,6.7082,6.7082,6.7082,6.7082,6.7082,6.7082,6.7082,6.7082,6.7082,6.7082,6.7082,6.7082,6.7082,6.7082,6.7082,6.7082,6.7082,6.7082,6.7082,6.7082,6.7082,6.7082,6.7082,6.7082,6.7082,6.7082,6.7082,6.7082,6.7082,6.7082,6.7082,6.7082,6.7082,6.7082,6.7082,6.7082,6.7082,6.7082,6.7082,6.7082,6.7082,6.7082,6.7082,6.7082,6.7082,6.7082,6.7082,6.7082,6.7082,6.7082,6.7082,6.7082,6.7082,6.7082,6.7082,6.7082,6.7082,6.7082,6.7082,6.7082,6.7082,6.7082,6.7082,6.7082,6.7082,6.7082,6.7082,6.7082,6.7082,6.7082,6.7082,6.7082,6.7082,6.7082,6.7082,6.7082,6.7082,6.7082,6.7082,6.7082,6.7082,6.7082,6.7082,6.7082,6.7082,6.7082,6.7082,6.7082,6.7082,6.7082,6.7082,6.7082,6.7082,6.7082,6.7082,6.7082,6.7082,6.7082,6.7082,6.7082,6.7082,6.7082,6.7082,6.7082,6.7082,6.7082,6.7082,6.7082,6.7082,6.7082,6.7082,6.7082,6.7082,6.7082,6.7082,6.7082,6.7082,6.7082,6.7082,6.7082,6.7082,6.7082,6.7082,6.7082,6.7082,6.7082,6.7082,6.7082,6.7082,6.7082,6.7082,6.7082,6.7082,6.7082,6.7082,6.7082,6.7082,6.7082,6.7082,6.7082,6.7082,6.7082,6.7082,6.7082,6.7082,6.7082,6.7082,6.7082,6.7082,6.7082,6.7082,6.7082,6.7082,6.7082,6.7082,6.7082,6.7082,6.7082,6.7082,6.7082,6.7082,6.7082,6.7082,6.7082,6.7082,6.7082,6.7082,6.7082,6.7082,6.7082,6.7082,6.7082,6.7082,6.7082,6.7082,6.7082,6.7082,6.7082,6.7082,6.7082,6.7082,6.7082,6.7082,6.7082,6.7082,6.7082,6.7082,6.7082,6.7082,6.7082,6.7082,6.7082,6.7082,6.7082,6.7082,6.7082,6.7082,6.7082,6.7082,6.7082,6.7082,6.7082,6.7082,6.7082,6.7082,6.7082,6.7082,6.7082,6.7082,6.7082,6.7082,6.7082,6.7082,6.7082,6.7082,6.7082,6.7082,6.7082,6.7082,6.7082,6.7082,6.7082,6.7082,6.7082,6.7082,6.7082,6.7082,6.7082,6.5303,6.5045,6.4799,6.4714,6.4630,6.4545,6.4461,6.4374,6.4286,6.4202,6.4129,6.4058,6.3984,6.3907,6.3834,6.3761,6.3686,6.3614,6.3541,6.3467,6.3395,6.3347,6.3292,6.3261,6.3242,6.3223,6.3204,6.3185,6.3166,6.3147,6.3128,6.3109,6.3090,6.3071,6.3052,6.3033,6.3015,6.2996,6.2977,6.2958,6.2937,6.2918,6.2899,6.2882,6.2866,6.2849,6.2831,6.2814,6.2798,6.2781,6.2763,6.2746,6.2730,6.2713,6.2695,6.2678,6.2662,6.2645,6.2629,6.2622,6.2627,6.2638,6.2650,6.2662,6.2671,6.2683,6.2695,6.2706,6.2718,6.2730,6.2739,6.2751,6.2763,6.2774,6.2786,6.2798,6.2807,6.2819,6.2828,6.2838,6.2849,6.2859,6.2868,6.2880,6.2889,6.2899,6.2908,6.2920,6.2930,6.2939,6.2948,6.2960,6.2970,6.2979,6.2996,6.3012,6.3026,6.3043,6.3059,6.3076,6.3093,6.3109,6.3126,6.3142,6.3157,6.3173,6.3195,6.3216,6.3245,6.3276,6.3326,6.3376,6.3426,6.3479,6.3529,6.3580,6.3633,6.3674,6.3710,6.3744,6.3788,6.3848,6.3909,6.3980,6.4067,6.4158,6.4239,6.4328,6.4421,6.4503,6.4630,6.4749,6.4879,6.5005,6.5212,6.7082
6.7026,6.7026,6.7026,6.7026,6.7026,6.7026,6.7026,6.7026,6.7026,6.7026,6.7026,6.7026,6.7026,6.7026,6.7026,6.7026,6.7026,6.7026,6.7026,6.7026,6.7026,6.7026,6.7026,6.7026,6.7026,6.7026,6.7026,6.7026,6.7026,6.7026,6.7026,6.7026,6.7026,6.7026,6.7026,6.7026,6.7026,6.7026,6.7026,6.7026,6.7026,6.7026,6.7026,6.7026,6.7026,6.7026,6.7026,6.7026,6.7026,6.7026,6.7026,6.7026,6.7026,6.7026,6.7026,6.7026,6.7026,6.7026,6.7026,6.7026,6.7026,6.7026,6.7026,6.7026,6.7026,6.7026,6.7026,6.7026,6.7026,6.7026,6.7026,6.7026,6.7026,6.7026,6.7026,6.7026,6.7026,6.7026,6.7026,6.7026,6.7026,6.7026,6.7026,6.7026,6.7026,6.7026,6.7026,6.7026,6.7026,6.7026,6.7026,6.7026,6.7026,6.7026,6.7026,6.7026,6.7026,6.7026,6.7026,6.7026,6.7026,6.7026,6.7026,6.7026,6.7026,6.7026,6.7026,6.7026,6.7026,6.7026,6.7026,6.7026,6.7026,6.7026,6.7026,6.7026,6.7026,6.7026,6.7026,6.7026,6.7026,6.7026,6.7026,6.7026,6.7026,6.7026,6.7026,6.7026,6.7026,6.7026,6.7026,6.7026,6.7026,6.7026,6.7026,6.7026,6.7026,6.7026,6.7026,6.7026,6.7026,6.7026,6.7026,6.7026,6.7026,6.7026,6.7026,6.7026,6.7026,6.7026,6.7026,6.7026,6.7026,6.7026,6.7026,6.7026,6.7026,6.7026,6.7026,6.7026,6.7026,6.7026,6.7026,6.7026,6.7026,6.7026,6.7026,6.7026,6.7026,6.7026,6.7026,6.7026,6.7026,6.7026,6.7026,6.7026,6.7026,6.7026,6.7026,6.7026,6.7026,6.7026,6.7026,6.7026,6.7026,6.7026,6.7026,6.7026,6.7026,6.7026,6.7026,6.7026,6.7026,6.7026,6.7026,6.7026,6.7026,6.7026,6.7026,6.7026,6.7026,6.7026,6.7026,6.7026,6.7026,6.7026,6.7026,6.7026,6.7026,6.7026,6.7026,6.7026,6.7026,6.7026,6.7026,6.7026,6.7026,6.7026,6.7026,6.7026,6.7026,6.7026,6.7026,6.7026,6.7026,6.7026,6.7026,6.7026,6.7026,6.7026,6.7026,6.7026,6.7026,6.7026,6.7026,6.7026,6.7026,6.7026,6.7026,6.7026,6.7026,6.7026,6.7026,6.7026,6.7026,6.7026,6.7026,6.7026,6.7026,6.7026,6.7026,6.7026,6.7026,6.7026,6.7026,6.7026,6.7026,6.7026,6.7026,6.7026,6.7026,6.7026,6.7026,6.7026,6.7026,6.7026,6.7026,6.7026,6.7026,6.7026,6.7026,6.7026,6.7026,6.7026,6.7026,6.7026,6.7026,6.7026,6.7026,6.7026,6.7026,6.7026,6.7026,6.7026,6.7026,6.7026,6.7026,6.7026,6.7026,6.7026,6.7026,6.5323,6.5068,6.4812,6.4709,6.4617,6.4533,6.4449,6.4365,6.4281,6.4200,6.4129,6.4050,6.3982,6.3904,6.3831,6.3759,6.3684,6.3611,6.3537,6.3467,6.3414,6.3366,6.3311,6.3278,6.3259,6.3240,6.3221,6.3202,6.3183,6.3164,6.3145,6.3126,6.3107,6.3088,6.3069,6.3050,6.3031,6.3012,6.2991,6.2972,6.2951,6.2930,6.2913,6.2897,6.2880,6.2861,6.2845,6.2828,6.2812,6.2793,6.2777,6.2760,6.2744,6.2725,6.2709,6.2692,6.2676,6.2662,6.2657,6.2650,6.2653,6.2664,6.2676,6.2688,6.2699,6.2709,6.2720,6.2732,6.2744,6.2756,6.2767,6.2777,6.2788,6.2800,6.2812,6.2824,6.2833,6.2842,6.2854,6.2864,6.2873,6.2882,6.2894,6.2904,6.2913,6.2925,6.2934,6.2944,6.2953,6.2965,6.2974,6.2984,6.2996,6.3012,6.3029,6.3045,6.3059,6.3076,6.3093,6.3109,6.3126,6.3142,6.3161,6.3185,6.3207,6.3228,6.3259,6.3288,6.3319,6.3350,6.3388,6.3438,6.3489,6.3541,6.3592,6.3645,6.3688,6.3722,6.3759,6.3814,6.3875,6.3948,6.4033,6.4124,6.4210,6.4293,6.4392,6.4510,6.4635,6.4759,6.4887,6.5007,6.5362,6.7026,6.7026
6.6980,6.6980,6.6980,6.6980,6.6980,6.6980,6.6980,6.6980,6.6980,6.6980,6.6980,6.6980,6.6980,6.6980,6.6980,6.6980,6.6980,6.6980,6.6980,6.6980,6.6980,6.6980,6.6980,6.6980,6.6980,6.6980,6.6980,6.6980,6.6980,6.6980,6.6980,6.6980,6.6980,6.6980,6.6980,6.6980,6.6980,6.6980,6.6980,6.6980,6.6980,6.6980,6.6980,6.6980,6.6980,6.6980,6.6980,6.6980,6.6980,6.6980,6.6980,6.6980,6.6980,6.6980,6.6980,6.6980,6.6980,6.6980,6.6980,6.6980,6.6980,6.6980,6.6980,6.6980,6.6980,6.6980,6.6980,6.6980,6.6980,6.6980,6.6980,6.6980,6.6980,6.6980,6.6980,6.6980,6.6980,6.6980,6.6980,6.6980,6.6980,6.6980,6.6980,6.6980,6.6980,6.6980,6.6980,6.6980,6.6980,6.6980,6.6980,6.6980,6.6980,6.6980,6.6980,6.6980,6.6980,6.6980,6.6980,6.6980,6.6980,6.6980,6.6980,6.6980,6.6980,6.6980,6.6980,6.6980,6.6980,6.6980,6.6980,6.6980,6.6980,6.6980,6.6980,6.6980,6.6980,6.6980,6.6980,6.6980,6.6980,6.6980,6.6980,6.6980,6.6980,6.6980,6.6980,6.6980,6.6980,6.6980,6.6980,6.6980,6.6980,6.6980,6.6980,6.6980,6.6980,6.6980,6.6980,6.6980,6.6980,6.6980,6.6980,6.6980,6.6980,6.6980,6.6980,6.6980,6.6980,6.6980,6.6980,6.6980,6.6980,6.6980,6.6980,6.6980,6.6980,6.6980,6.6980,6.6980,6.6980,6.6980,6.6980,6.6980,6.6980,6.6980,6.6980,6.6980,6.6980,6.6980,6.6980,6.6980,6.6980,6.6980,6.6980,6.6980,6.6980,6.6980,6.6980,6.6980,6.6980,6.6980,6.6980,6.6980,6.6980,6.6980,6.6980,6.6980,6.6980,6.6980,6.6980,6.6980,6.6980,6.6980,6.6980,6.6980,6.6980,6.6980,6.6980,6.6980,6.6980,6.6980,6.6980,6.6980,6.6980,6.6980,6.6980,6.6980,6.6980,6.6980,6.6980,6.6980,6.6980,6.6980,6.6980,6.6980,6.6980,6.6980,6.6980,6.6980,6.6980,6.6980,6.6980,6.6980,6.6980,6.6980,6.6980,6.6980,6.6980,6.6980,6.6980,6.6980,6.6980,6.6980,6.6980,6.6980,6.6980,6.6980,6.6980,6.6980,6.6980,6.6980,6.6980,6.6980,6.6980,6.6980,6.6980,6.6980,6.6980,6.6980,6.6980,6.6980,6.6980,6.6980,6.6980,6.6980,6.6980,6.6980,6.6980,6.6980,6.6980,6.6980,6.6980,6.6980,6.6980,6.6980,6.6980,6.6980,6.6980,6.6980,6.6980,6.6980,6.6980,6.6980,6.6980,6.6980,6.6980,6.6980,6.6980,6.6980,6.6980,6.6980,6.6980,6.6980,6.6980,6.6980,6.6980,6.6980,6.6980,6.6980,6.6980,6.6980,6.5339,6.5088,6.4832,6.4697,6.4617,6.4533,6.4444,6.4360,6.4281,6.4202,6.4126,6.4050,6.3977,6.3902,6.3829,6.3754,6.3681,6.3609,6.3537,6.3486,6.3433,6.3383,6.3331,6.3297,6.3273,6.3254,6.3235,6.3216,6.3197,6.3178,6.3159,6.3140,6.3121,6.3102,6.3083,6.3064,6.3045,6.3024,6.3005,6.2984,6.2965,6.2944,6.2927,6.2911,6.2892,6.2875,6.2859,6.2842,6.2824,6.2807,6.2791,6.2774,6.2756,6.2739,6.2723,6.2706,6.2697,6.2690,6.2685,6.2678,6.2681,6.2690,6.2702,6.2713,6.2725,6.2737,6.2748,6.2758,6.2770,6.2781,6.2793,6.2805,6.2817,6.2826,6.2838,6.2847,6.2857,6.2868,6.2878,6.2887,6.2899,6.2908,6.2918,6.2930,6.2939,6.2948,6.2958,6.2970,6.2979,6.2989,6.2998,6.3012,6.3029,6.3045,6.3062,6.3078,6.3093,6.3109,6.3131,6.3152,6.3176,6.3197,6.3219,6.3242,6.3271,6.3302,6.3333,6.3362,6.3393,6.3421,6.3453,6.3501,6.3553,6.3604,6.3655,6.3703,6.3737,6.3778,6.3839,6.3914,6.3997,6.4085,6.4170,6.4278,6.4397,6.4525,6.4647,6.4772,6.4897,6.5022,6.5520,6.6980,6.6980,6.6980
6.6927,6.6927,6.6927,6.6927,6.6927,6.6927,6.6927,6.6927,6.6927,6.6927,6.6927,6.6927,6.6927,6.6927,6.6927,6.6927,6.6927,6.6927,6.6927,6.6927,6.6927,6.6927,6.6927,6.6927,6.6927,6.6927,6.6927,6.6927,6.6927,6.6927,6.6927,6.6927,6.6927,6.6927,6.6927,6.6927,6.6927,6.6927,6.6927,6.6927,6.6927,6.6927,6.6927,6.6927,6.6927,6.6927,6.6927,6.6927,6.6927,6.6927,6.6927,6.6927,6.6927,6.6927,6.6927,6.6927,6.6927,6.6927,6.6927,6.6927,6.6927,6.6927,6.6927,6.6927,6.6927,6.6927,6.6927,6.6927,6.6927,6.6927,6.6927,6.6927,6.6927,6.6927,6.6927,6.6927,6.6927,6.6927,6.6927,6.6927,6.6927,6.6927,6.6927,6.6927,6.6927,6.6927,6.6927,6.6927,6.6927,6.6927,6.6927,6.6927,6.6927,6.6927,6.6927,6.6927,6.6927,6.6927,6.6927,6.6927,6.6927,6.6927,6.6927,6.6927,6.6927,6.6927,6.6927,6.6927,6.6927,6.6927,6.6927,6.6927,6.6927,6.6927,6.6927,6.6927,6.6927,6.6927,6.6927,6.6927,6.6927,6.6927,6.6927,6.6927,6.6927,6.6927,6.6927,6.6927,6.6927,6.6927,6.6927,6.6927,6.6927,6.6927,6.6927,6.6927,6.6927,6.6927,6.6927,6.6927,6.6927,6.6927,6.6927,6.6927,6.6927,6.6927,6.6927,6.6927,6.6927,6.6927,6.6927,6.6927,6.6927,6.6927,6.6927,6.6927,6.6927,6.6927,6.6927,6.6927,6.6927,6.6927,6.6927,6.6927,6.6927,6.6927,6.6927,6.6927,6.6927,6.6927,6.6927,6.6927,6.6927,6.6927,6.6927,6.6927,6.6927,6.6927,6.6927,6.6927,6.6927,6.6927,6.6927,6.6927,6.6927,6.6927,6.6927,6.6927,6.6927,6.6927,6.6927,6.6927,6.6927,6.6927,6.6927,6.6927,6.6927,6.6927,6.6927,6.6927,6.6927,6.6927,6.6927,6.6927,6.6927,6.6927,6.6927,6.6927,6.6927,6.6927,6.6927,6.6927,6.6927,6.6927,6.6927,6.6927,6.6927,6.6927,6.6927,6.6927,6.6927,6.6927,6.6927,6.6927,6.6927,6.6927,6.6927,6.6927,6.6927,6.6927,6.6927,6.6927,6.6927,6.6927,6.6927,6.6927,6.6927,6.6927,6.6927,6.6927,6.6927,6.6927,6.6927,6.6927,6.6927,6.6927,6.6927,6.6927,6.6927,6.6927,6.6927,6.6927,6.6927,6.6927,6.6927,6.6927,6.6927,6.6927,6.6927,6.6927,6.6927,6.6927,6.6927,6.6927,6.6927,6.6927,6.6927,6.6927,6.6927,6.6927,6.6927,6.6927,6.6927,6.6927,6.6927,6.6927,6.6927,6.6927,6.6927,6.6927,6.6927,6.6927,6.6927,6.6927,6.6927,6.6927,6.6927,6.6927,6.6927,6.6927,6.6927,6.6927,6.6927,6.5359,6.5108,6.4854,6.4692,6.4612,6.4523,6.4439,6.4352,6.4273,6.4200,6.4119,6.4050,6.3972,6.3899,6.3826,6.3751,6.3679,6.3609,6.3558,6.3505,6.3453,6.3402,6.3352,6.3316,6.3290,6.3271,6.3252,6.3233,6.3214,6.3195,6.3176,6.3157,6.3138,6.3119,6.3100,6.3078,6.3059,6.3038,6.3019,6.2998,6.2979,6.2958,6.2941,6.2922,6.2906,6.2889,6.2873,6.2854,6.2838,6.2821,6.2805,6.2786,6.2770,6.2753,6.2737,6.2732,6.2725,6.2718,6.2713,6.2706,6.2706,6.2718,6.2727,6.2739,6.2751,6.2763,6.2774,6.2786,6.2795,6.2807,6.2819,6.2831,6.2842,6.2852,6.2861,6.2873,6.2882,6.2892,6.2904,6.2913,6.2922,6.2932,6.2944,6.2953,6.2963,6.2974,6.2984,6.2993,6.3003,6.3015,6.3029,6.3045,6.3062,6.3078,6.3100,6.3121,6.3142,6.3166,6.3188,6.3209,6.3230,6.3254,6.3285,6.3314,6.3345,6.3378,6.3405,6.3436,6.3465,6.3496,6.3525,6.3563,6.3616,6.3667,6.3715,6.3751,6.3805,6.3880,6.3965,6.4050,6.4165,6.4288,6.4409,6.4533,6.4652,6.4782,6.4907,6.5030,6.5668,6.6927,6.6927,6.6927,6.6927
6.6882,6.6882,6.6882,6.6882,6.6882,6.6882,6.6882,6.6882,6.6882,6.6882,6.6882,6.6882,6.6882,6.6882,6.6882,6.6882,6.6882,6.6882,6.6882,6.6882,6.6882,6.6882,6.6882,6.6882,6.6882,6.6882,6.6882,6.6882,6.6882,6.6882,6.6882,6.6882,6.6882,6.6882,6.6882,6.6882,6.6882,6.6882,6.6882,6.6882,6.6882,6.6882,6.6882,6.6882,6.6882,6.6882,6.6882,6.6882,6.6882,6.6882,6.6882,6.6882,6.6882,6.6882,6.6882,6.6882,6.6882,6.6882,6.6882,6.6882,6.6882,6.6882,6.6882,6.6882,6.6882,6.6882,6.6882,6.6882,6.6882,6.6882,6.6882,6.6882,6.6882,6.6882,6.6882,6.6882,6.6882,6.6882,6.6882,6.6882,6.6882,6.6882,6.6882,6.6882,6.6882,6.6882,6.6882,6.6882,6.6882,6.6882,6.6882,6.6882,6.6882,6.6882,6.6882,6.6882,6.6882,6.6882,6.6882,6.6882,6.6882,6.6882,6.6882,6.6882,6.6882,6.6882,6.6882,6.6882,6.6882,6.6882,6.6882,6.6882,6.6882,6.6882,6.6882,6.6882,6.6882,6.6882,6.6882,6.6882,6.6882,6.6882,6.6882,6.6882,6.6882,6.6882,6.6882,6.6882,6.6882,6.6882,6.6882,6.6882,6.6882,6.6882,6.6882,6.6882,6.6882,6.6882,6.6882,6.6882,6.6882,6.6882,6.6882,6.6882,6.6882,6.6882,6.6882,6.6882,6.6882,6.6882,6.6882,6.6882,6.6882,6.6882,6.6882,6.6882,6.6882,6.6882,6.6882,6.6882,6.6882,6.6882,6.6882,6.6882,6.6882,6.6882,6.6882,6.6882,6.6882,6.6882,6.6882,6.6882,6.6882,6.6882,6.6882,6.6882,6.6882,6.6882,6.6882,6.6882,6.6882,6.6882,6.6882,6.6882,6.6882,6.6882,6.6882,6.6882,6.6882,6.6882,6.6882,6.6882,6.6882,6.6882,6.6882,6.6882,6.6882,6.6882,6.6882,6.6882,6.6882,6.6882,6.6882,6.6882,6.6882,6.6882,6.6882,6.6882,6.6882,6.6882,6.6882,6.6882,6.6882,6.6882,6.6882,6.6882,6.6882,6.6882,6.6882,6.6882,6.6882,6.6882,6.6882,6.6882,6.6882,6.6882,6.6882,6.6882,6.6882,6.6882,6.6882,6.6882,6.6882,6.6882,6.6882,6.6882,6.6882,6.6882,6.6882,6.6882,6.6882,6.6882,6.6882,6.6882,6.6882,6.6882,6.6882,6.6882,6.6882,6.6882,6.6882,6.6882,6.6882,6.6882,6.6882,6.6882,6.6882,6.6882,6.6882,6.6882,6.6882,6.6882,6.6882,6.6882,6.6882,6.6882,6.6882,6.6882,6.6882,6.6882,6.6882,6.6882,6.6882,6.6882,6.6882,6.6882,6.6882,6.6882,6.6882,6.6882,6.6882,6.6882,6.6882,6.6882,6.6882,6.6882,6.6882,6.6882,6.6882,6.6882,6.6882,6.6882,6.6882,6.6882,6.5382,6.5128,6.4874,6.4692,6.4600,6.4515,6.4431,6.4347,6.4271,6.4190,6.4116,6.4043,6.3970,6.3897,6.3824,6.3749,6.3681,6.3628,6.3578,6.3525,6.3474,6.3421,6.3371,6.3335,6.3304,6.3285,6.3266,6.3247,6.3228,6.3209,6.3190,6.3171,6.3152,6.3133,6.3114,6.3093,6.3074,6.3052,6.3031,6.3012,6.2991,6.2972,6.2953,6.2937,6.2920,6.2904,6.2885,6.2868,6.2852,6.2835,6.2817,6.2800,6.2784,6.2772,6.2765,6.2760,6.2753,6.2748,6.2741,6.2734,6.2732,6.2744,6.2756,6.2767,6.2777,6.2788,6.2800,6.2812,6.2824,6.2835,6.2845,6.2857,6.2866,6.2878,6.2887,6.2897,6.2906,6.2918,6.2927,6.2937,6.2948,6.2958,6.2967,6.2979,6.2989,6.2998,6.3007,6.3019,6.3029,6.3045,6.3069,6.3090,6.3112,6.3133,6.3157,6.3178,6.3200,6.3221,6.3245,6.3269,6.3297,6.3331,6.3357,6.3388,6.3419,6.3448,6.3479,6.3508,6.3539,6.3570,6.3599,6.3631,6.3679,6.3730,6.3771,6.3846,6.3931,6.4048,6.4168,6.4296,6.4419,6.4538,6.4662,6.4784,6.4909,6.5040,6.6882,6.6882,6.6882,6.6882,6.6882,6.6882
6.6831,6.6831,6.6831,6.6831,6.6831,6.6831,6.6831,6.6831,6.6831,6.6831,6.6831,6.6831,6.6831,6.6831,6.6831,6.6831,6.6831,6.6831,6.6831,6.6831,6.6831,6.6831,6.6831,6.6831,6.6831,6.6831,6.6831,6.6831,6.6831,6.6831,6.6831,6.6831,6.6831,6.6831,6.6831,6.6831,6.6831,6.6831,6.6831,6.6831,6.6831,6.6831,6.6831,6.6831,6.6831,6.6831,6.6831,6.6831,6.6831,6.6831,6.6831,6.6831,6.6831,6.6831,6.6831,6.6831,6.6831,6.6831,6.6831,6.6831,6.6831,6.6831,6.6831,6.6831,6.6831,6.6831,6.6831,6.6831,6.6831,6.6831,6.6831,6.6831,6.6831,6.6831,6.6831,6.6831,6.6831,6.6831,6.6831,6.6831,6.6831,6.6831,6.6831,6.6831,6.6831,6.6831,6.6831,6.6831,6.6831,6.6831,6.6831,6.6831,6.6831,6.6831,6.6831,6.6831,6.6831,6.6831,6.6831,6.6831,6.6831,6.6831,6.6831,6.6831,6.6831,6.6831,6.6831,6.6831,6.6831,6.6831,6.6831,6.6831,6.6831,6.6831,6.6831,6.6831,6.6831,6.6831,6.6831,6.6831,6.6831,6.6831,6.6831,6.6831,6.6831,6.6831,6.6831,6.6831,6.6831,6.6831,6.6831,6.6831,6.6831,6.6831,6.6831,6.6831,6.6831,6.6831,6.6831,6.6831,6.6831,6.6831,6.6831,6.6831,6.6831,6.6831,6.6831,6.6831,6.6831,6.6831,6.6831,6.6831,6.6831,6.6831,6.6831,6.6831,6.6831,6.6831,6.6831,6.6831,6.6831,6.6831,6.6831,6.6831,6.6831,6.6831,6.6831,6.6831,6.6831,6.6831,6.6831,6.6831,6.6831,6.6831,6.6831,6.6831,6.6831,6.6831,6.6831,6.6831,6.6831,6.6831,6.6831,6.6831,6.6831,6.6831,6.6831,6.6831,6.6831,6.6831,6.6831,6.6831,6.6831,6.6831,6.6831,6.6831,6.6831,6.6831,6.6831,6.6831,6.6831,6.6831,6.6831,6.6831,6.6831,6.6831,6.6831,6.6831,6.6831,6.6831,6.6831,6.6831,6.6831,6.6831,6.6831,6.6831,6.6831,6.6831,6.6831,6.6831,6.6831,6.6831,6.6831,6.6831,6.6831,6.6831,6.6831,6.6831,6.6831,6.6831,6.6831,6.6831,6.6831,6.6831,6.6831,6.6831,6.6831,6.6831,6.6831,6.6831,6.6831,6.6831,6.6831,6.6831,6.6831,6.6831,6.6831,6.6831,6.6831,6.6831,6.6831,6.6831,6.6831,6.6831,6.6831,6.6831,6.6831,6.6831,6.6831,6.6831,6.6831,6.6831,6.6831,6.6831,6.6831,6.6831,6.6831,6.6831,6.6831,6.6831,6.6831,6.6831,6.6831,6.6831,6.6831,6.6831,6.6831,6.6831,6.6831,6.6831,6.6831,6.6831,6.6831,6.6831,6.6831,6.6831,6.6831,6.6831,6.6831,6.6831,6.6831,6.6831,6.6831,6.6831,6.6831,6.5407,6.5149,6.4889,6.4684,6.4595,6.4515,6.4426,6.4342,6.4269,6.4192,6.4114,6.4043,6.3967,6.3894,6.3819,6.3751,6.3701,6.3647,6.3597,6.3544,6.3493,6.3441,6.3393,6.3357,6.3321,6.3302,6.3283,6.3264,6.3245,6.3226,6.3207,6.3188,6.3169,6.3147,6.3126,6.3107,6.3086,6.3067,6.3045,6.3026,6.3005,6.2986,6.2967,6.2951,6.2934,6.2915,6.2899,6.2882,6.2866,6.2847,6.2831,6.2814,6.2807,6.2800,6.2793,6.2788,6.2781,6.2777,6.2770,6.2763,6.2758,6.2770,6.2781,6.2793,6.2805,6.2814,6.2826,6.2838,6.2849,6.2861,6.2871,6.2880,6.2892,6.2901,6.2911,6.2922,6.2932,6.2941,6.2953,6.2963,6.2972,6.2981,6.2993,6.3003,6.3012,6.3024,6.3038,6.3059,6.3081,6.3102,6.3123,6.3147,6.3169,6.3190,6.3214,6.3235,6.3257,6.3280,6.3311,6.3340,6.3371,6.3402,6.3431,6.3462,6.3491,6.3522,6.3551,6.3582,6.3614,6.3643,6.3674,6.3703,6.3742,6.3817,6.3936,6.4055,6.4183,6.4305,6.4429,6.4550,6.4669,6.4794,6.4924,6.5043,6.6831,6.6831,6.6831,6.6831,6.6831,6.6831,6.6831
6.6781,6.6781,6.6781,6.6781,6.6781,6.6781,6.6781,6.6781,6.6781,6.6781,6.6781,6.6781,6.6781,6.6781,6.6781,6.6781,6.6781,6.6781,6.6781,6.6781,6.6781,6.6781,6.6781,6.6781,6.6781,6.6781,6.6781,6.6781,6.6781,6.6781,6.6781,6.6781,6.6781,6.6781,6.6781,6.6781,6.6781,6.6781,6.6781,6.6781,6.6781,6.6781,6.6781,6.6781,6.6781,6.6781,6.6781,6.6781,6.6781,6.6781,6.6781,6.6781,6.6781,6.6781,6.6781,6.6781,6.6781,6.6781,6.6781,6.6781,6.6781,6.6781,6.6781,6.6781,6.6781,6.6781,6.6781,6.6781,6.6781,6.6781,6.6781,6.6781,6.6781,6.6781,6.6781,6.6781,6.6781,6.6781,6.6781,6.6781,6.6781,6.6781,6.6781,6.6781,6.6781,6.6781,6.6781,6.6781,6.6781,6.6781,6.6781,6.6781,6.6781,6.6781,6.6781,6.6781,6.6781,6.6781,6.6781,6.6781,6.6781,6.6781,6.6781,6.6781,6.6781,6.6781,6.6781,6.6781,6.6781,6.6781,6.6781,6.6781,6.6781,6.6781,6.6781,6.6781,6.6781,6.6781,6.6781,6.6781,6.6781,6.6781,6.6781,6.6781,6.6781,6.6781,6.6781,6.6781,6.6781,6.6781,6.6781,6.6781,6.6781,6.6781,6.6781,6.6781,6.6781,6.6781,6.6781,6.6781,6.6781,6.6781,6.6781,6.6781,6.6781,6.6781,6.6781,6.6781,6.6781,6.6781,6.6781,6.6781,6.6781,6.6781,6.6781,6.6781,6.6781,6.6781,6.6781,6.6781,6.6781,6.6781,6.6781,6.6781,6.6781,6.6781,6.6781,6.6781,6.6781,6.6781,6.6781,6.6781,6.6781,6.6781,6.6781,6.6781,6.6781,6.6781,6.6781,6.6781,6.6781,6.6781,6.6781,6.6781,6.6781,6.6781,6.6781,6.6781,6.6781,6.6781,6.6781,6.6781,6.6781,6.6781,6.6781,6.6781,6.6781,6.6781,6.6781,6.6781,6.6781,6.6781,6.6781,6.6781,6.6781,6.6781,6.6781,6.6781,6.6781,6.6781,6.6781,6.6781,6.6781,6.6781,6.6781,6.6781,6.6781,6.6781,6.6781,6.6781,6.6781,6.6781,6.6781,6.6781,6.6781,6.6781,6.6781,6.6781,6.6781,6.6781,6.6781,6.6781,6.6781,6.6781,6.6781,6.6781,6.6781,6.6781,6.6781,6.6781,6.6781,6.6781,6.6781,6.6781,6.6781,6.6781,6.6781,6.6781,6.6781,6.6781,6.6781,6.6781,6.6781,6.6781,6.6781,6.6781,6.6781,6.6781,6.6781,6.6781,6.6781,6.6781,6.6781,6.6781,6.6781,6.6781,6.6781,6.6781,6.6781,6.6781,6.6781,6.6781,6.6781,6.6781,6.6781,6.6781,6.6781,6.6781,6.6781,6.6781,6.6781,6.6781,6.6781,6.6781,6.6781,6.6781,6.6781,6.6781,6.6781,6.6781,6.6781,6.6781,6.6781,6.6781,6.6781,6.6781,6.5443,6.5166,6.4909,6.4674,6.4595,6.4510,6.4421,6.4342,6.4266,6.4185,6.4111,6.4036,6.3965,6.3892,6.3824,6.3773,6.3720,6.3667,6.3616,6.3563,6.3513,6.3460,6.3409,6.3376,6.3343,6.3316,6.3297,6.3280,6.3261,6.3242,6.3221,6.3202,6.3180,6.3161,6.3140,6.3121,6.3100,6.3081,6.3059,6.3038,6.3019,6.2998,6.2981,6.2963,6.2946,6.2930,6.2913,6.2894,6.2878,6.2861,6.2847,6.2840,6.2835,6.2828,6.2821,6.2817,6.2809,6.2805,6.2798,6.2791,6.2786,6.2795,6.2807,6.2819,6.2831,6.2842,6.2854,6.2864,6.2875,6.2885,6.2897,6.2906,6.2915,6.2927,6.2937,6.2946,6.2955,6.2967,6.2977,6.2986,6.2998,6.3007,6.3024,6.3041,6.3055,6.3071,6.3093,6.3114,6.3138,6.3159,6.3180,6.3204,6.3226,6.3247,6.3269,6.3295,6.3326,6.3354,6.3386,6.3414,6.3445,6.3474,6.3505,6.3534,6.3565,6.3597,6.3626,6.3657,6.3686,6.3717,6.3756,6.3822,6.3945,6.4067,6.4192,6.4313,6.4436,6.4560,6.4684,6.4807,6.4932,6.5179,6.6781,6.6781,6.6781,6.6781,6.6781,6.6781,6.6781,6.6781
6.6728,6.6728,6.6728,6.6728,6.6728,6.6728,6.6728,6.6728,6.6728,6.6728,6.6728,6.6728,6.6728,6.6728,6.6728,6.6728,6.6728,6.6728,6.6728,6.6728,6.6728,6.6728,6.6728,6.6728,6.6728,6.6728,6.6728,6.6728,6.6728,6.6728,6.6728,6.6728,6.6728,6.6728,6.6728,6.6728,6.6728,6.6728,6.6728,6.6728,6.6728,6.6728,6.6728,6.6728,6.6728,6.6728,6.6728,6.6728,6.6728,6.6728,6.6728,6.6728,6.6728,6.6728,6.6728,6.6728,6.6728,6.6728,6.6728,6.6728,6.6728,6.6728,6.6728,6.6728,6.6728,6.6728,6.6728,6.6728,6.6728,6.6728,6.6728,6.6728,6.6728,6.6728,6.6728,6.6728,6.6728,6.6728,6.6728,6.6728,6.6728,6.6728,6.6728,6.6728,6.6728,6.6728,6.6728,6.6728,6.6728,6.6728,6.6728,6.6728,6.6728,6.6728,6.6728,6.6728,6.6728,6.6728,6.6728,6.6728,6.6728,6.6728,6.6728,6.6728,6.6728,6.6728,6.6728,6.6728,6.6728,6.6728,6.6728,6.6728,6.6728,6.6728,6.6728,6.6728,6.6728,6.6728,6.6728,6.6728,6.6728,6.6728,6.6728,6.6728,6.6728,6.6728,6.6728,6.6728,6.6728,6.6728,6.6728,6.6728,6.6728,6.6728,6.6728,6.6728,6.6728,6.6728,6.6728,6.6728,6.6728,6.6728,6.6728,6.6728,6.6728,6.6728,6.6728,6.6728,6.6728,6.6728,6.6728,6.6728,6.6728,6.6728,6.6728,6.6728,6.6728,6.6728,6.6728,6.6728,6.6728,6.6728,6.6728,6.6728,6.6728,6.6728,6.6728,6.6728,6.6728,6.6728,6.6728,6.6728,6.6728,6.6728,6.6728,6.6728,6.6728,6.6728,6.6728,6.6728,6.6728,6.6728,6.6728,6.6728,6.6728,6.6728,6.6728,6.6728,6.6728,6.6728,6.6728,6.6728,6.6728,6.6728,6.6728,6.6728,6.6728,6.6728,6.6728,6.6728,6.6728,6.6728,6.6728,6.6728,6.6728,6.6728,6.6728,6.6728,6.6728,6.6728,6.6728,6.6728,6.6728,6.6728,6.6728,6.6728,6.6728,6.6728,6.6728,6.6728,6.6728,6.6728,6.6728,6.6728,6.6728,6.6728,6.6728,6.6728,6.6728,6.6728,6.6728,6.6728,6.6728,6.6728,6.6728,6.6728,6.6728,6.6728,6.6728,6.6728,6.6728,6.6728,6.6728,6.6728,6.6728,6.6728,6.6728,6.6728,6.6728,6.6728,6.6728,6.6728,6.6728,6.6728,6.6728,6.6728,6.6728,6.6728,6.6728,6.6728,6.6728,6.6728,6.6728,6.6728,6.6728,6.6728,6.6728,6.6728,6.6728,6.6728,6.6728,6.6728,6.6728,6.6728,6.6728,6.6728,6.6728,6.6728,6.6728,6.6728,6.6728,6.6728,6.6728,6.6728,6.6728,6.6728,6.6728,6.6733,6.6733,6.6733,6.6733,6.6733,6.6733,6.6733,6.6733,6.6733,6.6733,6.5553,6.5181,6.4934,6.4677,6.4587,6.4503,6.4414,6.4333,6.4256,6.4183,6.4109,6.4036,6.3963,6.3897,6.3843,6.3792,6.3739,6.3688,6.3635,6.3582,6.3532,6.3481,6.3433,6.3398,6.3362,6.3333,6.3314,6.3295,6.3276,6.3257,6.3235,6.3216,6.3195,6.3176,6.3154,6.3133,6.3114,6.3093,6.3074,6.3052,6.3033,6.3012,6.2993,6.2977,6.2960,6.2944,6.2925,6.2908,6.2892,6.2882,6.2875,6.2868,6.2864,6.2857,6.2852,6.2845,6.2838,6.2833,6.2826,6.2821,6.2814,6.2824,6.2833,6.2845,6.2857,6.2868,6.2880,6.2889,6.2901,6.2911,6.2920,6.2930,6.2941,6.2951,6.2960,6.2972,6.2981,6.2993,6.3007,6.3024,6.3041,6.3055,6.3071,6.3088,6.3105,6.3128,6.3150,6.3171,6.3195,6.3216,6.3238,6.3259,6.3283,6.3307,6.3338,6.3366,6.3398,6.3429,6.3457,6.3489,6.3517,6.3549,6.3578,6.3609,6.3640,6.3669,6.3701,6.3739,6.3797,6.3856,6.3945,6.4070,6.4197,6.4323,6.4441,6.4567,6.4687,6.4817,6.4942,6.6728,6.6728,6.6728,6.6728,6.6728,6.6728,6.6728,6.6728,6.6728,6.6728
6.6683,6.6683,6.6683,6.6683,6.6683,6.6683,6.6683,6.6683,6.6683,6.6683,6.6683,6.6683,6.6683,6.6683,6.6683,6.6683,6.6683,6.6683,6.6683,6.6683,6.6683,6.6683,6.6683,6.6683,6.6683,6.6683,6.6683,6.6683,6.6683,6.6683,6.6683,6.6683,6.6683,6.6683,6.6683,6.6683,6.6683,6.6683,6.6683,6.6683,6.6683,6.6683,6.6683,6.6683,6.6683,6.6683,6.6683,6.6683,6.6683,6.6683,6.6683,6.6683,6.6683,6.6683,6.6683,6.6683,6.6683,6.6683,6.6683,6.6683,6.6683,6.6683,6.6683,6.6683,6.6683,6.6683,6.6683,6.6683,6.6683,6.6683,6.6683,6.6683,6.6683,6.6683,6.6683,6.6683,6.6683,6.6683,6.6683,6.6683,6.6683,6.6683,6.6683,6.6683,6.6683,6.6683,6.6683,6.6683,6.6683,6.6683,6.6683,6.6683,6.6683,6.6683,6.6683,6.6683,6.6683,6.6683,6.6683,6.6683,6.6683,6.6683,6.6683,6.6683,6.6683,6.6683,6.6683,6.6683,6.6683,6.6683,6.6683,6.6683,6.6683,6.6683,6.6683,6.6683,6.6683,6.6683,6.6683,6.6683,6.6683,6.6683,6.6683,6.6683,6.6683,6.6683,6.6683,6.6683,6.6683,6.6683,6.6683,6.6683,6.6683,6.6683,6.6683,6.6683,6.6683,6.6683,6.6683,6.6683,6.6683,6.6683,6.6683,6.6683,6.6683,6.6683,6.6683,6.6683,6.6683,6.6683,6.6683,6.6683,6.6683,6.6683,6.6683,6.6683,6.6683,6.6683,6.6683,6.6683,6.6683,6.6683,6.6683,6.6683,6.6683,6.6683,6.6683,6.6683,6.6683,6.6683,6.6683,6.6683,6.6683,6.6683,6.6683,6.6683,6.6683,6.6683,6.6683,6.6683,6.6683,6.6683,6.6683,6.6683,6.6683,6.6683,6.6683,6.6683,6.6683,6.6683,6.6683,6.6683,6.6683,6.6683,6.6683,6.6683,6.6683,6.6683,6.6683,6.6683,6.6683,6.6683,6.6683,6.6683,6.6683,6.6683,6.6683,6.6683,6.6683,6.6683,6.6683,6.6683,6.6683,6.6683,6.6683,6.6683,6.6683,6.6683,6.6683,6.6683,6.6683,6.6683,6.6683,6.6683,6.6683,6.6683,6.6683,6.6683,6.6683,6.6683,6.6683,6.6683,6.6683,6.6683,6.6683,6.6683,6.6683,6.6683,6.6683,6.6683,6.6683,6.6683,6.6683,6.6683,6.6683,6.6683,6.6683,6.6683,6.6683,6.6683,6.6683,6.6683,6.6683,6.6683,6.6683,6.6683,6.6683,6.6683,6.6683,6.6683,6.6683,6.6683,6.6683,6.6683,6.6683,6.6683,6.6683,6.6683,6.6683,6.6683,6.6683,6.6683,6.6683,6.6683,6.6683,6.6683,6.6683,6.6683,6.6683,6.6683,6.6683,6.6683,6.6683,6.6683,6.6683,6.6683,6.6683,6.6683,6.6683,6.6683,6.6683,6.6683,6.6683,6.6683,6.6683,6.6683,6.6683,6.6683,6.5745,6.5219,6.4952,6.4702,6.4577,6.4498,6.4409,6.4335,6.4259,6.4185,6.4107,6.4036,6.3967,6.3916,6.3863,6.3812,6.3759,6.3708,6.3655,6.3604,6.3558,6.3513,6.3465,6.3419,6.3383,6.3350,6.3331,6.3311,6.3290,6.3271,6.3249,6.3228,6.3209,6.3188,6.3169,6.3147,6.3128,6.3107,6.3086,6.3067,6.3045,6.3026,6.3007,6.2991,6.2974,6.2955,6.2939,6.2922,6.2915,6.2911,6.2904,6.2897,6.2892,6.2885,6.2880,6.2873,6.2866,6.2861,6.2854,6.2849,6.2842,6.2849,6.2861,6.2873,6.2882,6.2894,6.2904,6.2915,6.2925,6.2934,6.2946,6.2955,6.2965,6.2977,6.2993,6.3007,6.3024,6.3041,6.3055,6.3071,6.3088,6.3105,6.3119,6.3140,6.3161,6.3185,6.3207,6.3228,6.3249,6.3273,6.3295,6.3323,6.3352,6.3381,6.3409,6.3441,6.3472,6.3501,6.3532,6.3561,6.3592,6.3623,6.3652,6.3684,6.3722,6.3780,6.3839,6.3897,6.3955,6.4070,6.4192,6.4320,6.4446,6.4577,6.4697,6.4819,6.4945,6.6683,6.6683,6.6683,6.6683,6.6683,6.6683,6.6683,6.6683,6.6683,6.6683,6.6683
6.6632,6.6632,6.6632,6.6632,6.6632,6.6632,6.6632,6.6632,6.6632,6.6632,6.6632,6.6632,6.6632,6.6632,6.6632,6.6632,6.6632,6.6632,6.6632,6.6632,6.6632,6.6632,6.6632,6.6632,6.6632,6.6632,6.6632,6.6632,6.6632,6.6632,6.6632,6.6632,6.6632,6.6632,6.6632,6.6632,6.6632,6.6632,6.6632,6.6632,6.6632,6.6632,6.6632,6.6632,6.6632,6.6632,6.6632,6.6632,6.6632,6.6632,6.6632,6.6632,6.6632,6.6632,6.6632,6.6632,6.6632,6.6632,6.6632,6.6632,6.6632,6.6632,6.6632,6.6632,6.6632,6.6632,6.6632,6.6632,6.6632,6.6632,6.6632,6.6632,6.6632,6.6632,6.6632,6.6632,6.6632,6.6632,6.6632,6.6632,6.6632,6.6632,6.6632,6.6632,6.6632,6.6632,6.6632,6.6632,6.6632,6.6632,6.6632,6.6627,6.6627,6.6627,6.6627,6.6627,6.6627,6.6627,6.6627,6.6627,6.6627,6.6627,6.6627,6.6627,6.6627,6.6627,6.6627,6.6627,6.6627,6.6627,6.6627,6.6627,6.6627,6.6627,6.6627,6.6627,6.6627,6.6627,6.6627,6.6627,6.6627,6.6627,6.6627,6.6627,6.6627,6.6627,6.6627,6.6627,6.6627,6.6627,6.6627,6.6627,6.6627,6.6627,6.6627,6.6627,6.6627,6.6627,6.6627,6.6627,6.6627,6.6627,6.6627,6.6627,6.6627,6.6627,6.6627,6.6627,6.6627,6.6627,6.6627,6.6627,6.6627,6.6627,6.6627,6.6627,6.6627,6.6627,6.6627,6.6627,6.6627,6.6627,6.6627,6.6627,6.6627,6.6627,6.6627,6.6627,6.6627,6.6627,6.6627,6.6627,6.6627,6.6627,6.6627,6.6627,6.6627,6.6627,6.6627,6.6627,6.6627,6.6627,6.6627,6.6627,6.6627,6.6627,6.6627,6.6627,6.6627,6.6627,6.6627,6.6627,6.6627,6.6627,6.6627,6.6627,6.6627,6.6627,6.6627,6.6627,6.6627,6.6627,6.6627,6.6627,6.6627,6.6627,6.6627,6.6627,6.6627,6.6627,6.6627,6.6627,6.6627,6.6627,6.6627,6.6627,6.6627,6.6627,6.6627,6.6627,6.6627,6.6627,6.6627,6.6627,6.6627,6.6627,6.6627,6.6627,6.6627,6.6627,6.6627,6.6627,6.6627,6.6627,6.6627,6.6627,6.6627,6.6627,6.6627,6.6627,6.6627,6.6627,6.6627,6.6627,6.6627,6.6627,6.6627,6.6627,6.6627,6.6627,6.6627,6.6627,6.6627,6.6627,6.6627,6.6627,6.6627,6.6627,6.6627,6.6627,6.6627,6.6627,6.6627,6.6627,6.6627,6.6627,6.6627,6.6627,6.6627,6.6627,6.6627,6.6627,6.6627,6.6627,6.6627,6.6627,6.6627,6.6627,6.6627,6.6627,6.6627,6.6627,6.6627,6.6627,6.6627,6.6627,6.6627,6.6627,6.6627,6.6627,6.6627,6.6627,6.6627,6.6627,6.6627,6.6627,6.6627,6.6627,6.6627,6.5936,6.5265,6.4967,6.4717,6.4572,6.4493,6.4409,6.4328,6.4256,6.4178,6.4102,6.4043,6.3987,6.3936,6.3882,6.3831,6.3778,6.3730,6.3684,6.3635,6.3590,6.3544,6.3493,6.3443,6.3405,6.3369,6.3345,6.3326,6.3304,6.3283,6.3264,6.3242,6.3223,6.3202,6.3180,6.3161,6.3140,6.3121,6.3100,6.3081,6.3059,6.3041,6.3022,6.3005,6.2986,6.2970,6.2955,6.2951,6.2944,6.2939,6.2932,6.2925,6.2920,6.2913,6.2908,6.2901,6.2894,6.2889,6.2882,6.2878,6.2871,6.2875,6.2887,6.2899,6.2908,6.2920,6.2930,6.2939,6.2951,6.2960,6.2977,6.2993,6.3010,6.3024,6.3041,6.3057,6.3071,6.3088,6.3105,6.3119,6.3135,6.3152,6.3176,6.3197,6.3219,6.3240,6.3264,6.3285,6.3307,6.3333,6.3366,6.3393,6.3424,6.3453,6.3484,6.3515,6.3544,6.3575,6.3604,6.3635,6.3667,6.3708,6.3766,6.3824,6.3882,6.3941,6.3997,6.4075,6.4200,6.4325,6.4446,6.4572,6.4699,6.4827,6.4955,6.6627,6.6627,6.6627,6.6627,6.6627,6.6627,6.6627,6.6627,6.6627,6.6627,6.6627,6.6627
6.6577,6.6577,6.6577,6.6577,6.6577,6.6577,6.6577,6.6577,6.6577,6.6577,6.6577,6.6577,6.6577,6.6577,6.6577,6.6577,6.6577,6.6577,6.6577,6.6577,6.6577,6.6577,6.6577,6.6577,6.6577,6.6577,6.6577,6.6577,6.6577,6.6577,6.6577,6.6577,6.6577,6.6577,6.6577,6.6577,6.6577,6.6577,6.6577,6.6577,6.6577,6.6577,6.6577,6.6577,6.6577,6.6577,6.6577,6.6577,6.6577,6.6577,6.6577,6.6577,6.6577,6.6577,6.6577,6.6577,6.6577,6.6577,6.6577,6.6577,6.6577,6.6577,6.6577,6.6577,6.6577,6.6577,6.6577,6.6577,6.6577,6.6577,6.6577,6.6577,6.6577,6.6577,6.6577,6.6577,6.6577,6.6577,6.6577,6.6577,6.6577,6.6577,6.6577,6.6577,6.6577,6.6577,6.6577,6.6577,6.6577,6.6577,6.6577,6.6577,6.6577,6.6577,6.6577,6.6577,6.6577,6.6577,6.6577,6.6577,6.6577,6.6577,6.6577,6.6577,6.6577,6.6577,6.6577,6.6577,6.6577,6.6577,6.6577,6.6577,6.6577,6.6577,6.6577,6.6577,6.6577,6.6577,6.6577,6.6577,6.6577,6.6577,6.6577,6.6577,6.6577,6.6577,6.6577,6.6577,6.6577,6.6577,6.6577,6.6577,6.6577,6.6577,6.6577,6.6577,6.6577,6.6577,6.6577,6.6577,6.6577,6.6577,6.6577,6.6577,6.6577,6.6577,6.6577,6.6577,6.6577,6.6577,6.6577,6.6577,6.6577,6.6577,6.6577,6.6577,6.6577,6.6577,6.6577,6.6577,6.6577,6.6577,6.6577,6.6577,6.6577,6.6577,6.6577,6.6577,6.6577,6.6577,6.6577,6.6577,6.6577,6.6577,6.6577,6.6577,6.6577,6.6577,6.6577,6.6577,6.6577,6.6577,6.6577,6.6577,6.6577,6.6577,6.6577,6.6577,6.6577,6.6577,6.6577,6.6577,6.6577,6.6577,6.6577,6.6577,6.6577,6.6577,6.6577,6.6577,6.6577,6.6577,6.6577,6.6577,6.6577,6.6577,6.6577,6.6577,6.6577,6.6577,6.6577,6.6577,6.6577,6.6577,6.6577,6.6577,6.6577,6.6577,6.6577,6.6577,6.6577,6.6577,6.6577,6.6577,6.6577,6.6577,6.6577,6.6577,6.6577,6.6577,6.6577,6.6577,6.6577,6.6577,6.6577,6.6577,6.6577,6.6577,6.6577,6.6577,6.6577,6.6577,6.6577,6.6577,6.6577,6.6577,6.6577,6.6577,6.6577,6.6577,6.6577,6.6577,6.6577,6.6577,6.6577,6.6577,6.6577,6.6577,6.6577,6.6577,6.6577,6.6577,6.6577,6.6577,6.6577,6.6577,6.6577,6.6577,6.6577,6.6577,6.6577,6.6577,6.6577,6.6577,6.6577,6.6577,6.6577,6.6577,6.6577,6.6577,6.6577,6.6577,6.6577,6.6577,6.6577,6.6577,6.6577,6.6577,6.6577,6.6577,6.6577,6.6577,6.6577,6.6577,6.6577,6.6577,6.6577,6.6577,6.6577,6.6577,6.6577,6.5306,6.4995,6.4739,6.4570,6.4481,6.4404,6.4328,6.4249,6.4180,6.4111,6.4058,6.4009,6.3955,6.3902,6.3853,6.3807,6.3761,6.3715,6.3669,6.3623,6.3573,6.3522,6.3474,6.3431,6.3393,6.3364,6.3343,6.3321,6.3300,6.3276,6.3257,6.3235,6.3216,6.3195,6.3176,6.3154,6.3135,6.3114,6.3093,6.3074,6.3052,6.3036,6.3017,6.3000,6.2991,6.2986,6.2979,6.2972,6.2967,6.2960,6.2955,6.2948,6.2941,6.2937,6.2930,6.2925,6.2918,6.2911,6.2906,6.2899,6.2901,6.2913,6.2922,6.2934,6.2946,6.2963,6.2977,6.2993,6.3010,6.3024,6.3041,6.3057,6.3071,6.3088,6.3105,6.3119,6.3135,6.3152,6.3166,6.3188,6.3209,6.3230,6.3254,6.3276,6.3297,6.3323,6.3350,6.3376,6.3407,6.3436,6.3467,6.3498,6.3527,6.3558,6.3587,6.3618,6.3650,6.3691,6.3749,6.3807,6.3865,6.3924,6.3982,6.4041,6.4102,6.4200,6.4325,6.4451,6.4572,6.4699,6.4832,6.4987,6.6577,6.6577,6.6577,6.6577,6.6577,6.6577,6.6577,6.6577,6.6577,6.6577,6.6577,6.6577,6.6577
6.6529,6.6529,6.6529,6.6529,6.6529,6.6529,6.6529,6.6529,6.6529,6.6529,6.6529,6.6529,6.6529,6.6529,6.6529,6.6529,6.6529,6.6529,6.6529,6.6529,6.6529,6.6529,6.6529,6.6529,6.6529,6.6529,6.6529,6.6529,6.6529,6.6529,6.6529,6.6529,6.6529,6.6529,6.6529,6.6529,6.6529,6.6529,6.6529,6.6529,6.6529,6.6529,6.6529,6.6529,6.6529,6.6529,6.6529,6.6529,6.6529,6.6529,6.6529,6.6529,6.6529,6.6529,6.6529,6.6529,6.6529,6.6529,6.6529,6.6529,6.6529,6.6529,6.6529,6.6529,6.6529,6.6529,6.6529,6.6529,6.6529,6.6529,6.6529,6.6529,6.6529,6.6529,6.6529,6.6529,6.6529,6.6529,6.6529,6.6529,6.6529,6.6529,6.6529,6.6529,6.6529,6.6529,6.6529,6.6529,6.6529,6.6529,6.6529,6.6529,6.6529,6.6529,6.6529,6.6529,6.6529,6.6529,6.6529,6.6529,6.6529,6.6529,6.6529,6.6529,6.6529,6.6529,6.6529,6.6529,6.6529,6.6529,6.6529,6.6529,6.6529,6.6529,6.6529,6.6529,6.6529,6.6529,6.6529,6.6529,6.6529,6.6529,6.6529,6.6529,6.6529,6.6529,6.6529,6.6529,6.6529,6.6529,6.6529,6.6529,6.6529,6.6529,6.6529,6.6529,6.6529,6.6529,6.6529,6.6529,6.6529,6.6529,6.6529,6.6529,6.6529,6.6529,6.6529,6.6529,6.6529,6.6529,6.6529,6.6529,6.6529,6.6529,6.6529,6.6529,6.6529,6.6529,6.6529,6.6529,6.6529,6.6529,6.6529,6.6529,6.6529,6.6529,6.6529,6.6529,6.6529,6.6529,6.6529,6.6529,6.6529,6.6529,6.6529,6.6529,6.6529,6.6529,6.6529,6.6529,6.6529,6.6529,6.6529,6.6529,6.6529,6.6529,6.6529,6.6529,6.6529,6.6529,6.6529,6.6529,6.6529,6.6529,6.6529,6.6529,6.6529,6.6529,6.6529,6.6529,6.6529,6.6529,6.6529,6.6529,6.6529,6.6529,6.6529,6.6529,6.6529,6.6529,6.6529,6.6529,6.6529,6.6529,6.6529,6.6529,6.6529,6.6529,6.6529,6.6529,6.6529,6.6529,6.6529,6.6529,6.6529,6.6529,6.6529,6.6529,6.6529,6.6529,6.6529,6.6529,6.6529,6.6529,6.6529,6.6529,6.6529,6.6529,6.6529,6.6529,6.6529,6.6529,6.6529,6.6529,6.6529,6.6529,6.6529,6.6529,6.6529,6.6529,6.6529,6.6529,6.6529,6.6529,6.6529,6.6529,6.6529,6.6529,6.6529,6.6529,6.6529,6.6529,6.6529,6.6529,6.6529,6.6529,6.6529,6.6529,6.6529,6.6529,6.6529,6.6529,6.6529,6.6529,6.6529,6.6529,6.6529,6.6529,6.6529,6.6529,6.6529,6.6529,6.6529,6.6529,6.6529,6.6529,6.6529,6.6529,6.6529,6.6529,6.6529,6.6529,6.6529,6.6529,6.6529,6.6529,6.6529,6.6529,6.6529,6.6529,6.6529,6.6529,6.5341,6.5040,6.4759,6.4565,6.4476,6.4402,6.4320,6.4251,6.4183,6.4131,6.4077,6.4028,6.3980,6.3931,6.3885,6.3839,6.3792,6.3746,6.3701,6.3652,6.3602,6.3553,6.3503,6.3455,6.3417,6.3390,6.3369,6.3347,6.3321,6.3300,6.3278,6.3257,6.3233,6.3211,6.3190,6.3169,6.3147,6.3128,6.3107,6.3088,6.3067,6.3048,6.3031,6.3026,6.3019,6.3015,6.3007,6.3000,6.2996,6.2989,6.2984,6.2977,6.2970,6.2965,6.2958,6.2953,6.2946,6.2939,6.2934,6.2927,6.2930,6.2946,6.2963,6.2977,6.2993,6.3010,6.3024,6.3041,6.3057,6.3071,6.3088,6.3105,6.3121,6.3135,6.3152,6.3169,6.3183,6.3200,6.3221,6.3245,6.3266,6.3288,6.3311,6.3333,6.3359,6.3390,6.3419,6.3450,6.3479,6.3510,6.3541,6.3570,6.3602,6.3631,6.3676,6.3734,6.3792,6.3851,6.3909,6.3967,6.4023,6.4080,6.4143,6.4197,6.4320,6.4451,6.4572,6.4702,6.4862,6.6529,6.6529,6.6529,6.6529,6.6529,6.6529,6.6529,6.6529,6.6529,6.6529,6.6529,6.6529,6.6529,6.6529,6.6529
6.6479,6.6479,6.6479,6.6479,6.6479,6.6479,6.6479,6.6479,6.6479,6.6479,6.6479,6.6479,6.6479,6.6479,6.6479,6.6479,6.6479,6.6479,6.6479,6.6479,6.6479,6.6479,6.6479,6.6479,6.6479,6.6479,6.6479,6.6479,6.6479,6.6479,6.6479,6.6479,6.6479,6.6479,6.6479,6.6479,6.6479,6.6479,6.6479,6.6479,6.6479,6.6479,6.6479,6.6479,6.6479,6.6479,6.6479,6.6479,6.6479,6.6479,6.6479,6.6479,6.6479,6.6479,6.6479,6.6479,6.6479,6.6479,6.6479,6.6479,6.6479,6.6479,6.6479,6.6479,6.6479,6.6479,6.6479,6.6479,6.6479,6.6479,6.6479,6.6479,6.6479,6.6479,6.6479,6.6479,6.6479,6.6479,6.6479,6.6479,6.6479,6.6479,6.6479,6.6479,6.6479,6.6479,6.6479,6.6479,6.6479,6.6479,6.6479,6.6479,6.6479,6.6479,6.6479,6.6479,6.6479,6.6479,6.6479,6.6479,6.6479,6.6479,6.6479,6.6479,6.6479,6.6479,6.6479,6.6479,6.6479,6.6479,6.6479,6.6479,6.6479,6.6479,6.6479,6.6479,6.6479,6.6479,6.6479,6.6479,6.6479,6.6479,6.6479,6.6479,6.6479,6.6479,6.6479,6.6479,6.6479,6.6479,6.6479,6.6479,6.6479,6.6479,6.6479,6.6479,6.6479,6.6479,6.6479,6.6479,6.6479,6.6479,6.6479,6.6479,6.6479,6.6479,6.6479,6.6479,6.6479,6.6479,6.6479,6.6479,6.6479,6.6479,6.6479,6.6479,6.6479,6.6479,6.6479,6.6479,6.6479,6.6479,6.6479,6.6479,6.6479,6.6479,6.6479,6.6479,6.6479,6.6479,6.6479,6.6479,6.6479,6.6479,6.6479,6.6479,6.6479,6.6479,6.6479,6.6479,6.6479,6.6479,6.6479,6.6479,6.6479,6.6479,6.6479,6.6479,6.6479,6.6479,6.6479,6.6479,6.6479,6.6479,6.6479,6.6479,6.6479,6.6479,6.6479,6.6479,6.6479,6.6479,6.6479,6.6479,6.6479,6.6479,6.6479,6.6479,6.6479,6.6479,6.6479,6.6479,6.6479,6.6479,6.6479,6.6479,6.6479,6.6479,6.6479,6.6479,6.6479,6.6479,6.6479,6.6479,6.6479,6.6479,6.6479,6.6479,6.6479,6.6479,6.6479,6.6479,6.6479,6.6479,6.6479,6.6479,6.6479,6.6479,6.6479,6.6479,6.6479,6.6479,6.6479,6.6479,6.6479,6.6479,6.6479,6.6479,6.6479,6.6479,6.6479,6.6479,6.6479,6.6479,6.6479,6.6479,6.6479,6.6479,6.6479,6.6479,6.6479,6.6479,6.6479,6.6479,6.6479,6.6479,6.6479,6.6479,6.6479,6.6479,6.6479,6.6479,6.6479,6.6479,6.6479,6.6479,6.6479,6.6479,6.6479,6.6479,6.6479,6.6479,6.6479,6.6479,6.6479,6.6479,6.6479,6.6479,6.6479,6.6479,6.6479,6.6479,6.6479,6.6479,6.6479,6.6479,6.6479,6.6479,6.6479,6.6479,6.6479,6.6479,6.6479,6.5430,6.5078,6.4774,6.4560,6.4476,6.4399,6.4323,6.4261,6.4202,6.4156,6.4102,6.4058,6.4014,6.3963,6.3916,6.3870,6.3824,6.3778,6.3732,6.3684,6.3633,6.3582,6.3532,6.3481,6.3443,6.3412,6.3390,6.3369,6.3347,6.3323,6.3302,6.3280,6.3257,6.3235,6.3214,6.3190,6.3169,6.3147,6.3126,6.3102,6.3081,6.3067,6.3062,6.3057,6.3052,6.3048,6.3043,6.3038,6.3033,6.3029,6.3022,6.3017,6.3012,6.3007,6.3003,6.2998,6.2993,6.2989,6.2984,6.2979,6.2977,6.2993,6.3010,6.3026,6.3041,6.3057,6.3074,6.3088,6.3105,6.3121,6.3135,6.3152,6.3169,6.3183,6.3200,6.3216,6.3235,6.3257,6.3278,6.3302,6.3323,6.3345,6.3376,6.3402,6.3433,6.3462,6.3493,6.3525,6.3553,6.3585,6.3614,6.3659,6.3717,6.3776,6.3834,6.3892,6.3950,6.4009,6.4067,6.4129,6.4183,6.4246,6.4325,6.4446,6.4575,6.4747,6.4922,6.6479,6.6479,6.6479,6.6479,6.6479,6.6479,6.6479,6.6479,6.6479,6.6479,6.6479,6.6479,6.6479,6.6479,6.6479,6.6479
6.6429,6.6429,6.6429,6.6429,6.6429,6.6429,6.6429,6.6429,6.6429,6.6429,6.6429,6.6429,6.6429,6.6429,6.6429,6.6429,6.6429,6.6429,6.6429,6.6429,6.6429,6.6429,6.6429,6.6429,6.6429,6.6429,6.6429,6.6429,6.6429,6.6429,6.6429,6.6429,6.6429,6.6429,6.6429,6.6429,6.6429,6.6429,6.6429,6.6429,6.6429,6.6429,6.6429,6.6429,6.6429,6.6429,6.6429,6.6429,6.6429,6.6429,6.6429,6.6429,6.6429,6.6429,6.6429,6.6429,6.6429,6.6429,6.6429,6.6429,6.6429,6.6429,6.6429,6.6429,6.6429,6.6429,6.6429,6.6429,6.6429,6.6429,6.6429,6.6429,6.6429,6.6429,6.6429,6.6429,6.6429,6.6429,6.6429,6.6429,6.6429,6.6429,6.6429,6.6429,6.6429,6.6429,6.6429,6.6429,6.6429,6.6429,6.6429,6.6429,6.6429,6.6429,6.6429,6.6429,6.6429,6.6429,6.6429,6.6429,6.6429,6.6429,6.6429,6.6429,6.6429,6.6429,6.6429,6.6429,6.6429,6.6429,6.6429,6.6429,6.6429,6.6429,6.6429,6.6429,6.6429,6.6429,6.6429,6.6429,6.6429,6.6429,6.6429,6.6429,6.6429,6.6429,6.6429,6.6429,6.6429,6.6429,6.6429,6.6429,6.6429,6.6429,6.6429,6.6429,6.6429,6.6429,6.6429,6.6429,6.6429,6.6429,6.6429,6.6429,6.6429,6.6429,6.6429,6.6429,6.6429,6.6429,6.6429,6.6429,6.6429,6.6429,6.6429,6.6429,6.6429,6.6429,6.6429,6.6429,6.6429,6.6429,6.6429,6.6429,6.6429,6.6429,6.6429,6.6429,6.6429,6.6429,6.6429,6.6429,6.6429,6.6429,6.6429,6.6429,6.6429,6.6429,6.6429,6.6429,6.6429,6.6429,6.6429,6.6429,6.6429,6.6429,6.6429,6.6429,6.6429,6.6429,6.6429,6.6429,6.6429,6.6429,6.6429,6.6429,6.6429,6.6429,6.6429,6.6429,6.6429,6.6429,6.6429,6.6429,6.6429,6.6429,6.6429,6.6429,6.6429,6.6429,6.6429,6.6429,6.6429,6.6429,6.6429,6.6429,6.6429,6.6429,6.6429,6.6429,6.6429,6.6429,6.6429,6.6429,6.6429,6.6429,6.6429,6.6429,6.6429,6.6429,6.6429,6.6429,6.6429,6.6429,6.6429,6.6429,6.6429,6.6429,6.6429,6.6429,6.6429,6.6429,6.6429,6.6429,6.6429,6.6429,6.6429,6.6429,6.6429,6.6429,6.6429,6.6429,6.6429,6.6429,6.6429,6.6429,6.6429,6.6429,6.6429,6.6429,6.6429,6.6429,6.6429,6.6429,6.6429,6.6429,6.6429,6.6429,6.6429,6.6429,6.6429,6.6429,6.6429,6.6429,6.6429,6.6429,6.6429,6.6429,6.6429,6.6429,6.6429,6.6429,6.6429,6.6429,6.6429,6.6429,6.6429,6.6429,6.6429,6.6429,6.6429,6.6429,6.6429,6.6429,6.6429,6.6429,6.6429,6.6429,6.6429,6.6429,6.6429,6.6429,6.6429,6.6429,6.6429,6.5118,6.4819,6.4555,6.4471,6.4394,6.4335,6.4281,6.4227,6.4180,6.4134,6.4092,6.4041,6.3994,6.3950,6.3904,6.3858,6.3812,6.3763,6.3713,6.3662,6.3611,6.3563,6.3513,6.3467,6.3436,6.3414,6.3393,6.3369,6.3347,6.3328,6.3302,6.3280,6.3259,6.3238,6.3214,6.3192,6.3171,6.3152,6.3133,6.3126,6.3121,6.3114,6.3109,6.3105,6.3100,6.3095,6.3090,6.3086,6.3081,6.3076,6.3071,6.3067,6.3062,6.3057,6.3052,6.3048,6.3043,6.3038,6.3033,6.3029,6.3041,6.3057,6.3074,6.3088,6.3105,6.3121,6.3135,6.3152,6.3169,6.3183,6.3200,6.3216,6.3233,6.3247,6.3269,6.3292,6.3316,6.3335,6.3357,6.3386,6.3417,6.3445,6.3477,6.3505,6.3537,6.3568,6.3597,6.3645,6.3703,6.3761,6.3819,6.3877,6.3933,6.3992,6.4053,6.4107,6.4165,6.4224,6.4288,6.4347,6.4449,6.4627,6.4807,6.4985,6.6429,6.6429,6.6429,6.6429,6.6429,6.6429,6.6429,6.6429,6.6429,6.6429,6.6429,6.6429,6.6429,6.6429,6.6429,6.6429,6.6429
6.6385,6.6385,6.6385,6.6385,6.6385,6.6385,6.6385,6.6385,6.6385,6.6385,6.6385,6.6385,6.6385,6.6385,6.6385,6.6385,6.6385,6.6385,6.6385,6.6385,6.6385,6.6385,6.6385,6.6385,6.6385,6.6385,6.6385,6.6385,6.6385,6.6385,6.6385,6.6385,6.6385,6.6385,6.6385,6.6385,6.6385,6.6385,6.6385,6.6385,6.6385,6.6385,6.6385,6.6385,6.6385,6.6385,6.6385,6.6385,6.6385,6.6385,6.6385,6.6385,6.6385,6.6385,6.6385,6.6385,6.6385,6.6385,6.6385,6.6385,6.6385,6.6385,6.6385,6.6385,6.6385,6.6385,6.6385,6.6385,6.6385,6.6385,6.6385,6.6385,6.6385,6.6385,6.6385,6.6385,6.6385,6.6385,6.6385,6.6385,6.6385,6.6385,6.6385,6.6385,6.6385,6.6385,6.6385,6.6385,6.6385,6.6385,6.6385,6.6385,6.6385,6.6385,6.6385,6.6385,6.6385,6.6385,6.6385,6.6385,6.6385,6.6385,6.6385,6.6385,6.6385,6.6385,6.6385,6.6385,6.6385,6.6385,6.6385,6.6385,6.6385,6.6385,6.6385,6.6385,6.6385,6.6385,6.6385,6.6385,6.6385,6.6385,6.6385,6.6385,6.6385,6.6385,6.6385,6.6385,6.6385,6.6385,6.6385,6.6385,6.6385,6.6385,6.6385,6.6385,6.6385,6.6385,6.6385,6.6385,6.6385,6.6385,6.6385,6.6385,6.6385,6.6385,6.6385,6.6385,6.6385,6.6385,6.6385,6.6385,6.6385,6.6385,6.6385,6.6385,6.6385,6.6385,6.6385,6.6385,6.6385,6.6385,6.6385,6.6385,6.6385,6.6385,6.6385,6.6385,6.6385,6.6385,6.6385,6.6385,6.6385,6.6385,6.6385,6.6385,6.6385,6.6385,6.6385,6.6385,6.6385,6.6385,6.6385,6.6385,6.6385,6.6385,6.6385,6.6385,6.6385,6.6385,6.6385,6.6385,6.6385,6.6385,6.6385,6.6385,6.6385,6.6385,6.6385,6.6385,6.6385,6.6385,6.6385,6.6385,6.6385,6.6385,6.6385,6.6385,6.6385,6.6385,6.6385,6.6385,6.6385,6.6385,6.6385,6.6385,6.6385,6.6385,6.6385,6.6385,6.6385,6.6385,6.6385,6.6385,6.6385,6.6385,6.6385,6.6385,6.6385,6.6385,6.6385,6.6385,6.6385,6.6385,6.6385,6.6385,6.6385,6.6385,6.6385,6.6385,6.6385,6.6385,6.6385,6.6385,6.6385,6.6385,6.6385,6.6385,6.6385,6.6385,6.6385,6.6385,6.6385,6.6385,6.6385,6.6385,6.6385,6.6385,6.6385,6.6385,6.6385,6.6385,6.6385,6.6385,6.6385,6.6385,6.6385,6.6385,6.6385,6.6385,6.6385,6.6385,6.6385,6.6385,6.6385,6.6385,6.6385,6.6385,6.6385,6.6385,6.6385,6.6385,6.6385,6.6385,6.6385,6.6385,6.6385,6.6385,6.6385,6.6385,6.6385,6.6385,6.6385,6.6385,6.6385,6.6385,6.6385,6.6385,6.6385,6.6385,6.6385,6.6385,6.6385,6.6385,6.6385,6.6385,6.6385,6.4854,6.4563,6.4463,6.4402,6.4352,6.4310,6.4259,6.4212,6.4170,6.4119,6.4072,6.4028,6.3982,6.3936,6.3890,6.3843,6.3792,6.3742,6.3691,6.3643,6.3592,6.3541,6.3493,6.3460,6.3438,6.3417,6.3395,6.3371,6.3350,6.3328,6.3304,6.3283,6.3264,6.3245,6.3226,6.3207,6.3192,6.3185,6.3180,6.3176,6.3171,6.3164,6.3159,6.3154,6.3150,6.3145,6.3140,6.3135,6.3131,6.3126,6.3121,6.3116,6.3112,6.3107,6.3102,6.3097,6.3090,6.3086,6.3081,6.3088,6.3105,6.3121,6.3138,6.3152,6.3169,6.3185,6.3200,6.3216,6.3233,6.3247,6.3264,6.3283,6.3304,6.3326,6.3347,6.3371,6.3400,6.3429,6.3460,6.3489,6.3520,6.3551,6.3580,6.3628,6.3686,6.3744,6.3802,6.3860,6.3919,6.3980,6.4033,6.4092,6.4151,6.4214,6.4273,6.4333,6.4397,6.4503,6.4684,6.4859,6.6385,6.6385,6.6385,6.6385,6.6385,6.6385,6.6385,6.6385,6.6385,6.6385,6.6385,6.6385,6.6385,6.6385,6.6385,6.6385,6.6385,6.6385,6.6385
6.6332,6.6332,6.6332,6.6332,6.6332,6.6332,6.6332,6.6332,6.6332,6.6332,6.6332,6.6332,6.6332,6.6332,6.6332,6.6332,6.6332,6.6332,6.6332,6.6332,6.6332,6.6332,6.6332,6.6332,6.6332,6.6332,6.6332,6.6332,6.6332,6.6332,6.6332,6.6332,6.6332,6.6332,6.6332,6.6332,6.6332,6.6332,6.6332,6.6332,6.6332,6.6332,6.6332,6.6332,6.6332,6.6332,6.6332,6.6332,6.6332,6.6332,6.6332,6.6332,6.6332,6.6332,6.6332,6.6332,6.6332,6.6332,6.6332,6.6332,6.6332,6.6332,6.6332,6.6332,6.6332,6.6332,6.6332,6.6332,6.6332,6.6332,6.6332,6.6332,6.6332,6.6332,6.6332,6.6332,6.6332,6.6332,6.6332,6.6332,6.6332,6.6332,6.6332,6.6332,6.6332,6.6332,6.6332,6.6332,6.6332,6.6332,6.6332,6.6332,6.6332,6.6332,6.6332,6.6332,6.6332,6.6332,6.6332,6.6332,6.6332,6.6332,6.6332,6.6332,6.6332,6.6332,6.6332,6.6332,6.6332,6.6332,6.6332,6.6332,6.6332,6.6332,6.6332,6.6332,6.6332,6.6332,6.6332,6.6332,6.6332,6.6332,6.6332,6.6332,6.6332,6.6332,6.6332,6.6332,6.6332,6.6332,6.6332,6.6332,6.6332,6.6332,6.6332,6.6332,6.6332,6.6332,6.6332,6.6332,6.6332,6.6332,6.6332,6.6332,6.6332,6.6332,6.6332,6.6332,6.6332,6.6332,6.6332,6.6332,6.6332,6.6332,6.6332,6.6332,6.6332,6.6332,6.6332,6.6332,6.6332,6.6332,6.6332,6.6332,6.6332,6.6332,6.6332,6.6332,6.6332,6.6332,6.6332,6.6332,6.6332,6.6332,6.6332,6.6332,6.6332,6.6332,6.6332,6.6332,6.6332,6.6332,6.6332,6.6332,6.6332,6.6332,6.6332,6.6332,6.6332,6.6332,6.6332,6.6332,6.6332,6.6332,6.6332,6.6332,6.6332,6.6332,6.6332,6.6332,6.6332,6.6332,6.6332,6.6332,6.6332,6.6332,6.6332,6.6332,6.6332,6.6332,6.6332,6.6332,6.6332,6.6332,6.6332,6.6332,6.6332,6.6332,6.6332,6.6332,6.6332,6.6332,6.6332,6.6332,6.6332,6.6332,6.6332,6.6332,6.6332,6.6332,6.6332,6.6332,6.6332,6.6332,6.6332,6.6332,6.6332,6.6332,6.6332,6.6332,6.6332,6.6332,6.6332,6.6332,6.6332,6.6332,6.6332,6.6332,6.6332,6.6332,6.6332,6.6332,6.6332,6.6332,6.6332,6.6332,6.6332,6.6332,6.6332,6.6332,6.6332,6.6332,6.6332,6.6332,6.6332,6.6332,6.6332,6.6332,6.6332,6.6332,6.6332,6.6332,6.6332,6.6332,6.6332,6.6332,6.6332,6.6332,6.6332,6.6332,6.6332,6.6332,6.6332,6.6332,6.6332,6.6332,6.6332,6.6332,6.6332,6.6332,6.6332,6.6332,6.6332,6.6332,6.6332,6.6332,6.6332,6.6332,6.6332,6.6332,6.6332,6.6332,6.6332,6.6332,6.6332,6.6332,6.6332,6.6332,6.6332,6.4699,6.4486,6.4434,6.4387,6.4345,6.4298,6.4249,6.4197,6.4151,6.4109,6.4060,6.4014,6.3967,6.3921,6.3873,6.3822,6.3773,6.3722,6.3672,6.3621,6.3570,6.3522,6.3484,6.3462,6.3438,6.3417,6.3395,6.3378,6.3357,6.3340,6.3319,6.3300,6.3283,6.3264,6.3252,6.3247,6.3242,6.3235,6.3230,6.3226,6.3221,6.3214,6.3209,6.3204,6.3197,6.3192,6.3188,6.3183,6.3178,6.3173,6.3169,6.3164,6.3159,6.3154,6.3150,6.3145,6.3140,6.3135,6.3138,6.3152,6.3169,6.3185,6.3200,6.3216,6.3233,6.3247,6.3264,6.3280,6.3297,6.3316,6.3338,6.3362,6.3386,6.3412,6.3443,6.3472,6.3503,6.3532,6.3563,6.3614,6.3672,6.3730,6.3788,6.3843,6.3902,6.3960,6.4016,6.4075,6.4134,6.4192,6.4266,6.4330,6.4404,6.4483,6.4565,6.4739,6.4922,6.6332,6.6332,6.6332,6.6332,6.6332,6.6332,6.6332,6.6332,6.6332,6.6332,6.6332,6.6332,6.6332,6.6332,6.6332,6.6332,6.6332,6.6332,6.6332,6.6332
6.6283,6.6283,6.6283,6.6283,6.6283,6.6283,6.6283,6.6283,6.6283,6.6283,6.6283,6.6283,6.6283,6.6283,6.6283,6.6283,6.6283,6.6283,6.6283,6.6283,6.6283,6.6283,6.6283,6.6283,6.6283,6.6283,6.6283,6.6283,6.6283,6.6283,6.6283,6.6283,6.6283,6.6283,6.6283,6.6283,6.6283,6.6283,6.6283,6.6283,6.6283,6.6283,6.6283,6.6283,6.6283,6.6283,6.6283,6.6283,6.6283,6.6283,6.6283,6.6283,6.6283,6.6283,6.6283,6.6283,6.6283,6.6283,6.6283,6.6283,6.6283,6.6283,6.6283,6.6283,6.6283,6.6283,6.6283,6.6283,6.6283,6.6283,6.6283,6.6283,6.6283,6.6283,6.6283,6.6283,6.6283,6.6283,6.6283,6.6283,6.6283,6.6283,6.6283,6.6283,6.6283,6.6283,6.6283,6.6283,6.6283,6.6283,6.6283,6.6283,6.6283,6.6283,6.6283,6.6283,6.6283,6.6283,6.6283,6.6283,6.6283,6.6283,6.6283,6.6283,6.6283,6.6283,6.6283,6.6283,6.6283,6.6283,6.6283,6.6283,6.6283,6.6283,6.6283,6.6283,6.6283,6.6283,6.6283,6.6283,6.6283,6.6283,6.6283,6.6283,6.6283,6.6283,6.6283,6.6283,6.6283,6.6283,6.6283,6.6283,6.6283,6.6283,6.6283,6.6283,6.6283,6.6283,6.6283,6.6283,6.6283,6.6283,6.6283,6.6283,6.6283,6.6283,6.6283,6.6283,6.6283,6.6283,6.6283,6.6283,6.6283,6.6283,6.6283,6.6283,6.6283,6.6283,6.6283,6.6283,6.6283,6.6283,6.6283,6.6283,6.6283,6.6283,6.6283,6.6283,6.6283,6.6283,6.6283,6.6283,6.6283,6.6283,6.6283,6.6283,6.6283,6.6283,6.6283,6.6283,6.6283,6.6283,6.6283,6.6283,6.6283,6.6283,6.6283,6.6283,6.6283,6.6283,6.6283,6.6283,6.6283,6.6283,6.6283,6.6283,6.6283,6.6283,6.6283,6.6283,6.6283,6.6283,6.6283,6.6283,6.6283,6.6283,6.6283,6.6283,6.6283,6.6283,6.6283,6.6283,6.6283,6.6283,6.6283,6.6283,6.6283,6.6283,6.6283,6.6283,6.6283,6.6283,6.6283,6.6283,6.6283,6.6283,6.6283,6.6283,6.6283,6.6283,6.6283,6.6283,6.6283,6.6283,6.6283,6.6283,6.6283,6.6283,6.6283,6.6283,6.6283,6.6283,6.6283,6.6283,6.6283,6.6283,6.6283,6.6283,6.6283,6.6283,6.6283,6.6283,6.6283,6.6283,6.6283,6.6283,6.6283,6.6283,6.6283,6.6283,6.6283,6.6283,6.6283,6.6283,6.6283,6.6283,6.6283,6.6283,6.6283,6.6283,6.6283,6.6283,6.6283,6.6283,6.6283,6.6283,6.6283,6.6283,6.6283,6.6283,6.6283,6.6283,6.6283,6.6283,6.6283,6.6283,6.6283,6.6283,6.6283,6.6283,6.6283,6.6283,6.6283,6.6283,6.6283,6.6283,6.6283,6.6283,6.6283,6.6283,6.6283,6.6283,6.6283,6.6283,6.6283,6.6283,6.6283,6.6283,6.6283,6.6283,6.6283,6.4600,6.4518,6.4439,6.4377,6.4330,6.4283,6.4237,6.4185,6.4143,6.4097,6.4048,6.3999,6.3953,6.3902,6.3853,6.3802,6.3751,6.3701,6.3652,6.3602,6.3551,6.3508,6.3489,6.3469,6.3450,6.3431,6.3412,6.3393,6.3376,6.3357,6.3338,6.3319,6.3314,6.3307,6.3302,6.3297,6.3292,6.3285,6.3280,6.3276,6.3269,6.3264,6.3259,6.3254,6.3247,6.3242,6.3238,6.3233,6.3228,6.3223,6.3219,6.3214,6.3209,6.3204,6.3200,6.3195,6.3190,6.3185,6.3200,6.3216,6.3233,6.3249,6.3264,6.3280,6.3297,6.3311,6.3331,6.3352,6.3374,6.3395,6.3426,6.3455,6.3486,6.3515,6.3546,6.3597,6.3655,6.3713,6.3771,6.3829,6.3887,6.3945,6.4004,6.4063,6.4129,6.4195,6.4264,6.4337,6.4407,6.4483,6.4567,6.4647,6.4797,6.4980,6.6283,6.6283,6.6283,6.6283,6.6283,6.6283,6.6283,6.6283,6.6283,6.6283,6.6283,6.6283,6.6283,6.6283,6.6283,6.6283,6.6283,6.6283,6.6283,6.6283,6.6283
6.6233,6.6233,6.6233,6.6233,6.6233,6.6233,6.6233,6.6233,6.6233,6.6233,6.6233,6.6233,6.6233,6.6233,6.6233,6.6233,6.6233,6.6233,6.6233,6.6233,6.6233,6.6233,6.6233,6.6233,6.6233,6.6233,6.6233,6.6233,6.6233,6.6233,6.6233,6.6233,6.6233,6.6233,6.6233,6.6233,6.6233,6.6233,6.6233,6.6233,6.6233,6.6233,6.6233,6.6233,6.6233,6.6233,6.6233,6.6233,6.6233,6.6233,6.6233,6.6233,6.6233,6.6233,6.6233,6.6233,6.6233,6.6233,6.6233,6.6233,6.6233,6.6233,6.6233,6.6233,6.6233,6.6233,6.6233,6.6233,6.6233,6.6233,6.6233,6.6233,6.6233,6.6233,6.6233,6.6233,6.6233,6.6233,6.6233,6.6233,6.6233,6.6233,6.6233,6.6233,6.6233,6.6233,6.6233,6.6233,6.6233,6.6233,6.6233,6.6233,6.6233,6.6233,6.6233,6.6233,6.6233,6.6233,6.6233,6.6233,6.6233,6.6233,6.6233,6.6233,6.6233,6.6233,6.6233,6.6233,6.6233,6.6233,6.6233,6.6233,6.6233,6.6233,6.6233,6.6233,6.6233,6.6233,6.6233,6.6233,6.6233,6.6233,6.6233,6.6233,6.6233,6.6233,6.6233,6.6233,6.6233,6.6233,6.6233,6.6233,6.6233,6.6233,6.6233,6.6233,6.6233,6.6233,6.6233,6.6233,6.6233,6.6233,6.6233,6.6233,6.6233,6.6233,6.6233,6.6233,6.6233,6.6233,6.6233,6.6233,6.6233,6.6233,6.6233,6.6233,6.6233,6.6233,6.6233,6.6233,6.6233,6.6233,6.6233,6.6233,6.6233,6.6233,6.6233,6.6233,6.6233,6.6233,6.6233,6.6233,6.6233,6.6233,6.6233,6.6233,6.6233,6.6233,6.6233,6.6233,6.6233,6.6233,6.6233,6.6233,6.6233,6.6233,6.6233,6.6233,6.6233,6.6233,6.6233,6.6233,6.6233,6.6233,6.6233,6.6233,6.6233,6.6233,6.6233,6.6233,6.6233,6.6233,6.6233,6.6233,6.6233,6.6233,6.6233,6.6233,6.6233,6.6233,6.6233,6.6233,6.6233,6.6233,6.6233,6.6233,6.6233,6.6233,6.6233,6.6233,6.6233,6.6233,6.6233,6.6233,6.6233,6.6233,6.6233,6.6233,6.6233,6.6233,6.6233,6.6233,6.6233,6.6233,6.6233,6.6233,6.6233,6.6233,6.6233,6.6233,6.6233,6.6233,6.6233,6.6233,6.6233,6.6233,6.6233,6.6233,6.6233,6.6233,6.6233,6.6233,6.6233,6.6233,6.6233,6.6233,6.6233,6.6233,6.6233,6.6233,6.6233,6.6233,6.6233,6.6233,6.6233,6.6233,6.6233,6.6233,6.6233,6.6233,6.6233,6.6233,6.6233,6.6233,6.6233,6.6233,6.6233,6.6233,6.6233,6.6233,6.6233,6.6233,6.6233,6.6233,6.6233,6.6233,6.6233,6.6233,6.6233,6.6233,6.6233,6.6233,6.6233,6.6233,6.6233,6.6233,6.6233,6.6233,6.6233,6.6233,6.6233,6.6233,6.6233,6.6233,6.6233,6.6233,6.6233,6.6233,6.6233,6.6233,6.6233,6.6233,6.6233,6.4645,6.4567,6.4498,6.4421,6.4347,6.4269,6.4217,6.4170,6.4129,6.4077,6.4036,6.3984,6.3933,6.3882,6.3831,6.3780,6.3732,6.3684,6.3638,6.3590,6.3544,6.3525,6.3505,6.3486,6.3469,6.3450,6.3431,6.3412,6.3393,6.3381,6.3374,6.3369,6.3364,6.3357,6.3354,6.3350,6.3343,6.3335,6.3331,6.3326,6.3321,6.3316,6.3309,6.3304,6.3297,6.3292,6.3288,6.3280,6.3276,6.3271,6.3266,6.3261,6.3257,6.3252,6.3247,6.3242,6.3238,6.3249,6.3264,6.3280,6.3297,6.3311,6.3331,6.3347,6.3364,6.3388,6.3409,6.3438,6.3469,6.3498,6.3529,6.3582,6.3640,6.3698,6.3754,6.3812,6.3870,6.3928,6.3992,6.4058,6.4129,6.4202,6.4266,6.4340,6.4407,6.4491,6.4570,6.4650,6.4729,6.4854,6.6233,6.6233,6.6233,6.6233,6.6233,6.6233,6.6233,6.6233,6.6233,6.6233,6.6233,6.6233,6.6233,6.6233,6.6233,6.6233,6.6233,6.6233,6.6233,6.6233,6.6233,6.6233,6.6233
6.6188,6.6188,6.6188,6.6188,6.6188,6.6188,6.6188,6.6188,6.6188,6.6188,6.6188,6.6188,6.6188,6.6188,6.6188,6.6188,6.6188,6.6188,6.6188,6.6188,6.6188,6.6188,6.6188,6.6188,6.6188,6.6188,6.6188,6.6188,6.6188,6.6188,6.6188,6.6188,6.6188,6.6188,6.6188,6.6188,6.6188,6.6188,6.6188,6.6188,6.6188,6.6188,6.6188,6.6188,6.6188,6.6188,6.6188,6.6188,6.6188,6.6188,6.6188,6.6188,6.6188,6.6188,6.6188,6.6188,6.6188,6.6188,6.6188,6.6188,6.6188,6.6188,6.6188,6.6188,6.6188,6.6188,6.6188,6.6188,6.6188,6.6188,6.6188,6.6188,6.6188,6.6188,6.6188,6.6188,6.6188,6.6188,6.6188,6.6188,6.6188,6.6188,6.6188,6.6188,6.6188,6.6188,6.6188,6.6188,6.6188,6.6188,6.6188,6.6188,6.6188,6.6188,6.6188,6.6188,6.6188,6.6188,6.6188,6.6188,6.6188,6.6188,6.6188,6.6188,6.6188,6.6188,6.6188,6.6188,6.6188,6.6188,6.6188,6.6188,6.6188,6.6188,6.6188,6.6188,6.6188,6.6188,6.6188,6.6188,6.6188,6.6188,6.6188,6.6188,6.6188,6.6188,6.6188,6.6188,6.6188,6.6188,6.6188,6.6188,6.6188,6.6188,6.6188,6.6188,6.6188,6.6188,6.6188,6.6188,6.6188,6.6188,6.6188,6.6188,6.6188,6.6188,6.6188,6.6188,6.6188,6.6188,6.6188,6.6188,6.6188,6.6188,6.6188,6.6188,6.6188,6.6188,6.6188,6.6188,6.6188,6.6188,6.6188,6.6188,6.6188,6.6188,6.6188,6.6188,6.6188,6.6188,6.6188,6.6188,6.6188,6.6188,6.6188,6.6188,6.6188,6.6188,6.6188,6.6188,6.6188,6.6188,6.6188,6.6188,6.6188,6.6188,6.6188,6.6188,6.6188,6.6188,6.6188,6.6188,6.6188,6.6188,6.6188,6.6188,6.6188,6.6188,6.6188,6.6188,6.6188,6.6188,6.6188,6.6188,6.6188,6.6188,6.6188,6.6188,6.6188,6.6188,6.6188,6.6188,6.6188,6.6188,6.6188,6.6188,6.6188,6.6188,6.6188,6.6188,6.6188,6.6188,6.6188,6.6188,6.6188,6.6188,6.6188,6.6188,6.6188,6.6188,6.6188,6.6188,6.6188,6.6188,6.6188,6.6188,6.6188,6.6188,6.6188,6.6188,6.6188,6.6188,6.6188,6.6188,6.6188,6.6188,6.6188,6.6188,6.6188,6.6188,6.6188,6.6188,6.6188,6.6188,6.6188,6.6188,6.6188,6.6188,6.6188,6.6188,6.6188,6.6188,6.6188,6.6188,6.6188,6.6188,6.6188,6.6188,6.6188,6.6188,6.6188,6.6188,6.6188,6.6188,6.6188,6.6188,6.6188,6.6188,6.6188,6.6188,6.6188,6.6188,6.6188,6.6188,6.6188,6.6188,6.6188,6.6188,6.6188,6.6188,6.6188,6.6188,6.6188,6.6188,6.6188,6.6188,6.6188,6.6188,6.6188,6.6188,6.6188,6.6188,6.6188,6.6188,6.6188,6.6188,6.6188,6.6188,6.6188,6.6188,6.6188,6.6188,6.6188,6.6188,6.5080,6.4699,6.4622,6.4548,6.4476,6.4397,6.4320,6.4251,6.4178,6.4109,6.4067,6.4014,6.3965,6.3916,6.3870,6.3822,6.3776,6.3727,6.3679,6.3633,6.3585,6.3563,6.3544,6.3525,6.3505,6.3486,6.3467,6.3448,6.3441,6.3436,6.3429,6.3424,6.3419,6.3414,6.3409,6.3402,6.3398,6.3393,6.3386,6.3383,6.3376,6.3369,6.3366,6.3359,6.3352,6.3347,6.3343,6.3338,6.3331,6.3326,6.3321,6.3316,6.3314,6.3307,6.3302,6.3297,6.3292,6.3297,6.3311,6.3331,6.3347,6.3362,6.3378,6.3402,6.3421,6.3453,6.3481,6.3513,6.3565,6.3623,6.3681,6.3739,6.3797,6.3858,6.3926,6.3994,6.4067,6.4131,6.4205,6.4273,6.4337,6.4414,6.4488,6.4572,6.4647,6.4727,6.4807,6.4914,6.6188,6.6188,6.6188,6.6188,6.6188,6.6188,6.6188,6.6188,6.6188,6.6188,6.6188,6.6188,6.6188,6.6188,6.6188,6.6188,6.6188,6.6188,6.6188,6.6188,6.6188,6.6188,6.6188,6.6188
6.6134,6.6134,6.6134,6.6134,6.6134,6.6134,6.6134,6.6134,6.6134,6.6134,6.6134,6.6134,6.6134,6.6134,6.6134,6.6134,6.6134,6.6134,6.6134,6.6134,6.6134,6.6134,6.6134,6.6134,6.6134,6.6134,6.6134,6.6134,6.6134,6.6134,6.6134,6.6134,6.6134,6.6134,6.6134,6.6134,6.6134,6.6134,6.6134,6.6134,6.6134,6.6134,6.6134,6.6134,6.6134,6.6134,6.6134,6.6134,6.6134,6.6134,6.6134,6.6134,6.6134,6.6134,6.6134,6.6134,6.6134,6.6134,6.6134,6.6134,6.6134,6.6134,6.6134,6.6134,6.6134,6.6134,6.6134,6.6134,6.6134,6.6134,6.6134,6.6134,6.6134,6.6134,6.6134,6.6134,6.6134,6.6134,6.6134,6.6134,6.6134,6.6134,6.6134,6.6134,6.6134,6.6134,6.6134,6.6134,6.6134,6.6134,6.6134,6.6134,6.6134,6.6134,6.6134,6.6134,6.6134,6.6134,6.6134,6.6134,6.6134,6.6134,6.6134,6.6134,6.6134,6.6134,6.6134,6.6134,6.6134,6.6134,6.6134,6.6134,6.6134,6.6134,6.6134,6.6134,6.6134,6.6134,6.6134,6.6134,6.6134,6.6134,6.6134,6.6134,6.6134,6.6134,6.6134,6.6134,6.6134,6.6134,6.6134,6.6134,6.6134,6.6134,6.6134,6.6134,6.6134,6.6134,6.6134,6.6134,6.6134,6.6134,6.6134,6.6134,6.6134,6.6134,6.6134,6.6134,6.6134,6.6134,6.6134,6.6134,6.6134,6.6134,6.6134,6.6134,6.6134,6.6134,6.6134,6.6134,6.6134,6.6134,6.6134,6.6134,6.6134,6.6134,6.6134,6.6134,6.6134,6.6134,6.6134,6.6134,6.6134,6.6134,6.6134,6.6134,6.6134,6.6134,6.6134,6.6134,6.6134,6.6134,6.6134,6.6134,6.6134,6.6134,6.6134,6.6134,6.6134,6.6134,6.6134,6.6134,6.6134,6.6134,6.6134,6.6134,6.6134,6.6134,6.6134,6.6134,6.6134,6.6134,6.6134,6.6134,6.6134,6.6134,6.6134,6.6134,6.6134,6.6134,6.6134,6.6134,6.6134,6.6134,6.6134,6.6134,6.6134,6.6134,6.6134,6.6134,6.6134,6.6134,6.6134,6.6134,6.6134,6.6134,6.6134,6.6134,6.6134,6.6134,6.6134,6.6134,6.6134,6.6134,6.6134,6.6134,6.6134,6.6134,6.6134,6.6134,6.6134,6.6134,6.6134,6.6134,6.6134,6.6134,6.6134,6.6134,6.6134,6.6134,6.6134,6.6134,6.6134,6.6134,6.6134,6.6134,6.6134,6.6134,6.6134,6.6134,6.6134,6.6134,6.6134,6.6134,6.6134,6.6134,6.6134,6.6134,6.6134,6.6134,6.6134,6.6134,6.6134,6.6134,6.6134,6.6134,6.6134,6.6134,6.6134,6.6134,6.6134,6.6134,6.6134,6.6134,6.6134,6.6134,6.6134,6.6134,6.6134,6.6134,6.6134,6.6134,6.6134,6.6134,6.6134,6.6134,6.6134,6.6134,6.6134,6.6134,6.6134,6.6134,6.6134,6.6134,6.6134,6.6134,6.6134,6.6134,6.6134,6.6134,6.6134,6.6134,6.6134,6.6134,6.6134,6.6134,6.4975,6.4752,6.4682,6.4602,6.4530,6.4456,6.4374,6.4305,6.4232,6.4156,6.4072,6.4011,6.3960,6.3914,6.3865,6.3817,6.3771,6.3722,6.3676,6.3628,6.3599,6.3580,6.3561,6.3544,6.3525,6.3508,6.3503,6.3496,6.3491,6.3486,6.3479,6.3474,6.3469,6.3465,6.3457,6.3453,6.3448,6.3441,6.3436,6.3431,6.3426,6.3419,6.3414,6.3409,6.3402,6.3398,6.3393,6.3388,6.3381,6.3376,6.3374,6.3364,6.3362,6.3354,6.3350,6.3345,6.3347,6.3362,6.3376,6.3393,6.3412,6.3433,6.3465,6.3496,6.3551,6.3609,6.3664,6.3725,6.3792,6.3860,6.3928,6.3999,6.4065,6.4134,6.4202,6.4271,6.4342,6.4416,6.4491,6.4575,6.4654,6.4737,6.4817,6.4892,6.4977,6.6134,6.6134,6.6134,6.6134,6.6134,6.6134,6.6134,6.6134,6.6134,6.6134,6.6134,6.6134,6.6134,6.6134,6.6134,6.6134,6.6134,6.6134,6.6134,6.6134,6.6134,6.6134,6.6134,6.6134,6.6134
6.6092,6.6092,6.6092,6.6092,6.6092,6.6092,6.6092,6.6092,6.6092,6.6092,6.6092,6.6092,6.6092,6.6092,6.6092,6.6092,6.6092,6.6092,6.6092,6.6092,6.6092,6.6092,6.6092,6.6092,6.6092,6.6092,6.6092,6.6092,6.6092,6.6092,6.6092,6.6092,6.6092,6.6092,6.6092,6.6092,6.6092,6.6092,6.6092,6.6092,6.6092,6.6092,6.6092,6.6092,6.6092,6.6092,6.6092,6.6092,6.6092,6.6092,6.6092,6.6092,6.6092,6.6092,6.6092,6.6092,6.6092,6.6092,6.6092,6.6092,6.6092,6.6092,6.6092,6.6092,6.6092,6.6092,6.6092,6.6092,6.6092,6.6092,6.6092,6.6092,6.6092,6.6092,6.6092,6.6092,6.6092,6.6092,6.6092,6.6092,6.6092,6.6092,6.6092,6.6092,6.6092,6.6092,6.6092,6.6092,6.6092,6.6092,6.6092,6.6092,6.6092,6.6092,6.6092,6.6092,6.6092,6.6092,6.6092,6.6092,6.6092,6.6092,6.6092,6.6092,6.6092,6.6092,6.6092,6.6092,6.6092,6.6092,6.6092,6.6092,6.6092,6.6092,6.6092,6.6092,6.6092,6.6092,6.6092,6.6092,6.6092,6.6092,6.6092,6.6092,6.6092,6.6092,6.6092,6.6092,6.6092,6.6092,6.6092,6.6092,6.6092,6.6092,6.6092,6.6092,6.6092,6.6092,6.6092,6.6092,6.6092,6.6092,6.6092,6.6092,6.6092,6.6092,6.6092,6.6092,6.6092,6.6092,6.6092,6.6092,6.6092,6.6092,6.6092,6.6092,6.6092,6.6092,6.6092,6.6092,6.6092,6.6092,6.6092,6.6092,6.6092,6.6092,6.6092,6.6092,6.6092,6.6092,6.6092,6.6092,6.6092,6.6092,6.6092,6.6092,6.6092,6.6092,6.6092,6.6092,6.6092,6.6092,6.6092,6.6092,6.6092,6.6092,6.6092,6.6092,6.6092,6.6092,6.6092,6.6092,6.6092,6.6092,6.6092,6.6092,6.6092,6.6092,6.6092,6.6092,6.6092,6.6092,6.6092,6.6092,6.6092,6.6092,6.6092,6.6092,6.6092,6.6092,6.6092,6.6092,6.6092,6.6092,6.6092,6.6092,6.6092,6.6092,6.6092,6.6092,6.6092,6.6092,6.6092,6.6092,6.6092,6.6092,6.6092,6.6092,6.6092,6.6092,6.6092,6.6092,6.6092,6.6092,6.6092,6.6092,6.6092,6.6092,6.6092,6.6092,6.6092,6.6092,6.6092,6.6092,6.6092,6.6092,6.6092,6.6092,6.6092,6.6092,6.6092,6.6092,6.6092,6.6092,6.6092,6.6092,6.6092,6.6092,6.6092,6.6092,6.6092,6.6092,6.6092,6.6092,6.6092,6.6092,6.6092,6.6092,6.6092,6.6092,6.6092,6.6092,6.6092,6.6092,6.6092,6.6092,6.6092,6.6092,6.6092,6.6092,6.6092,6.6092,6.6092,6.6092,6.6092,6.6092,6.6092,6.6092,6.6092,6.6092,6.6092,6.6092,6.6092,6.6092,6.6092,6.6092,6.6092,6.6092,6.6092,6.6092,6.6092,6.6092,6.6092,6.6092,6.6092,6.6092,6.6092,6.6092,6.6092,6.6092,6.6092,6.6092,6.6092,6.6092,6.6092,6.6092,6.6092,6.6092,6.4889,6.4812,6.4737,6.4662,6.4585,6.4505,6.4431,6.4355,6.4281,6.4205,6.4124,6.4045,6.3965,6.3909,6.3860,6.3812,6.3766,6.3717,6.3672,6.3638,6.3618,6.3599,6.3580,6.3568,6.3563,6.3558,6.3551,6.3546,6.3541,6.3537,6.3529,6.3525,6.3520,6.3513,6.3508,6.3503,6.3498,6.3491,6.3486,6.3481,6.3474,6.3469,6.3465,6.3460,6.3453,6.3448,6.3443,6.3436,6.3431,6.3426,6.3421,6.3414,6.3409,6.3405,6.3400,6.3398,6.3409,6.3426,6.3448,6.3479,6.3534,6.3592,6.3659,6.3727,6.3795,6.3863,6.3931,6.4002,6.4070,6.4136,6.4205,6.4281,6.4350,6.4419,6.4498,6.4572,6.4654,6.4739,6.4834,6.4932,6.5040,6.6092,6.6092,6.6092,6.6092,6.6092,6.6092,6.6092,6.6092,6.6092,6.6092,6.6092,6.6092,6.6092,6.6092,6.6092,6.6092,6.6092,6.6092,6.6092,6.6092,6.6092,6.6092,6.6092,6.6092,6.6092,6.6092,6.6092
