7.1071,7.1071,7.1071,7.1071,7.1071,7.1071,7.1071,7.1071,7.1071,7.1071,7.1071,7.1071,7.1071,7.1071,7.1071,7.1071,7.1071,7.1071,7.1071,7.1071,7.1071,7.1071,7.1071,7.1071,7.1071,7.1071,7.1071,7.1071,7.1071,7.1071,7.1071,7.1071,7.1071,7.1071,7.1071,7.1071,7.1071,7.1071,7.1071,7.1071,7.1071,7.1071,7.1071,7.1071,7.1071,7.1071,7.1071,7.1071,7.1071,7.1071,7.1071,7.1071,7.1071,7.1071,7.1071,7.1071,7.1071,7.1071,7.1071,7.1071,7.1071,7.1071,7.1071,7.1071,7.1071,7.1071,7.1071,7.1071,7.1071,7.1071,7.1071,7.1071,7.1071,7.1071,7.1071,7.1071,7.1071,7.1071,7.1071,7.1071,7.1071,7.1071,7.1071,7.1071,7.1071,7.1071,7.1071,7.1071,7.1071,7.1071,7.1071,7.1071,7.1071,7.1071,7.1071,7.1071,7.1071,7.1071,7.1071,7.1071,7.1071,7.1071,7.1071,7.1071,7.1071,7.1071,7.1071,7.1071,7.1071,7.1071,7.1071,7.1071,7.1071,7.1071,7.1071,7.1071,7.1071,7.1071,7.1071,7.1071,7.1071,7.1071,7.1071,7.1071,7.1071,7.1071,7.1071,7.1071,7.1071,7.1071,7.1071,7.1071,7.1071,7.1071,6.8324,6.7742,6.7104,6.7015,6.6930,6.6836,6.6746,6.6664,6.6574,6.6482,6.6398,6.6311,6.6217,6.6129,6.6035,6.5939,6.5841,6.5787,6.5763,6.5730,6.5704,6.5671,6.5648,6.5612,6.5581,6.5548,6.5520,6.5489,6.5451,6.5423,6.5390,6.5359,6.5326,6.5313,6.5298,6.5280,6.5260,6.5237,6.5212,6.5184,6.5159,6.5144,6.5149,6.5154,6.5166,6.5171,6.5171,6.5184,6.5184,6.5194,6.5202,6.5207,6.5212,6.5214,6.5224,6.5222,6.5222,6.5214,6.5209,6.5204,6.5199,6.5197,6.5192,6.5192,6.5184,6.5181,6.5179,6.5181,6.5179,6.5176,6.5169,6.5192,6.5232,6.5265,6.5288,6.5318,6.5341,6.5356,6.5384,6.5405,6.5423,6.5443,6.5471,6.5492,6.5509,6.5532,6.5535,6.5540,6.5540,6.5543,6.5553,6.5553,6.5561,6.5566,6.5571,6.5573,6.5579,6.5579,6.5584,6.5586,6.5599,6.5612,6.5625,6.5627,6.5627,6.5622,6.5620,6.5604,6.5602,6.5586,6.5579,6.5576,6.5561,6.5553,6.5545,6.5535,6.5532,6.5517,6.5509,6.5504,6.5492,6.5484,6.5479,6.5466,6.5458,6.5458,6.5458,6.5466,6.5458,6.5448,6.5441,6.5438,6.5425,6.5423,6.5418,6.5410,6.5402,6.5390,6.5382,6.5382,6.5369,6.5362,6.5359,6.5351,6.5341,6.5341,6.5339,6.5334,6.5323,6.5326,6.5316,6.5313,6.5313,6.5308,6.5306,6.5301,6.5290,6.5288,6.5288,6.5278,6.5273,6.5270,6.5263,6.5268,6.5293,6.5316,6.5334,6.5359,6.5382,6.5402,6.5425,6.5443,6.5469,6.5492,6.5509,6.5530,6.5558,6.5576,6.5602,6.5620,6.5643,6.5668,6.5691,6.5709,6.5738,6.5761,6.5784,6.5802,6.5825,6.5851,6.5877,6.5908,6.5934,6.5957,6.5988,6.6009,6.6040,6.6095,6.6155,6.6207,6.6267,6.6317,6.6379,6.6437,6.6487,6.6550,6.6616,6.6698,6.6783,6.6868,6.6959,6.7039,6.7130,6.7216,6.7303,6.7384,6.7476,6.7633,6.7940,6.8257,6.8586,6.8924,6.9265,7.1071,7.1071,7.1071,7.1071,7.1071,7.1071,7.1071,7.1071,7.1071,7.1071,7.1071,7.1071,7.1071,7.1071,7.1071,7.1071,7.1071,7.1071,7.1071,7.1071,7.1071,7.1071,7.1071,7.1071,7.1071,7.1071,7.1071,7.1071,7.1071,7.1071,7.1071,7.1071,7.1071,7.1071,7.1071,7.1071,7.1071,7.1071,7.1071,7.1071,7.1071,7.1071,7.1071,7.1071,7.1071,7.1071,7.1071,7.1071,7.1071,7.1071,7.1071,7.1071,7.1071,7.1071,7.1071,7.1071,7.1071,7.1071,7.1071,7.1071,7.1071,7.1071,7.1071,7.1071,7.1071,7.1071,7.1071,7.1071,7.1071
7.1020,7.1020,7.1020,7.1020,7.1020,7.1020,7.1020,7.1020,7.1020,7.1020,7.1020,7.1020,7.1020,7.1020,7.1020,7.1020,7.1020,7.1020,7.1020,7.1020,7.1020,7.1020,7.1020,7.1020,7.1020,7.1020,7.1020,7.1020,7.1020,7.1020,7.1020,7.1020,7.1020,7.1020,7.1020,7.1020,7.1020,7.1020,7.1020,7.1020,7.1020,7.1020,7.1020,7.1020,7.1020,7.1020,7.1020,7.1020,7.1020,7.1020,7.1020,7.1020,7.1020,7.1020,7.1020,7.1020,7.1020,7.1020,7.1020,7.1020,7.1020,7.1020,7.1020,7.1020,7.1020,7.1020,7.1020,7.1020,7.1020,7.1020,7.1020,7.1020,7.1020,7.1020,7.1020,7.1020,7.1020,7.1020,7.1020,7.1020,7.1020,7.1020,7.1020,7.1020,7.1020,7.1020,7.1020,7.1020,7.1020,7.1020,7.1020,7.1020,7.1020,7.1020,7.1020,7.1020,7.1020,7.1020,7.1020,7.1020,7.1020,7.1020,7.1020,7.1020,7.1020,7.1020,7.1020,7.1020,7.1020,7.1020,7.1020,7.1020,7.1020,7.1020,7.1020,7.1020,7.1020,7.1020,7.1020,7.1020,7.1020,7.1020,7.1020,7.1020,7.1020,7.1020,7.1020,7.1020,7.1020,7.1020,7.1020,7.1020,7.1020,7.1020,6.8539,6.7940,6.7313,6.7010,6.6922,6.6839,6.6749,6.6661,6.6566,6.6479,6.6395,6.6309,6.6215,6.6131,6.6032,6.5934,6.5836,6.5766,6.5733,6.5707,6.5673,6.5648,6.5620,6.5591,6.5553,6.5525,6.5494,6.5456,6.5428,6.5395,6.5359,6.5339,6.5316,6.5298,6.5280,6.5268,6.5245,6.5224,6.5199,6.5176,6.5151,6.5128,6.5111,6.5116,6.5121,6.5131,6.5138,6.5144,6.5149,6.5156,6.5161,6.5161,6.5169,6.5179,6.5176,6.5174,6.5174,6.5179,6.5169,6.5171,6.5161,6.5161,6.5151,6.5151,6.5141,6.5138,6.5138,6.5133,6.5128,6.5126,6.5118,6.5116,6.5141,6.5166,6.5192,6.5212,6.5235,6.5260,6.5275,6.5303,6.5318,6.5346,6.5362,6.5384,6.5410,6.5430,6.5435,6.5433,6.5443,6.5443,6.5448,6.5451,6.5456,6.5466,6.5469,6.5474,6.5479,6.5476,6.5486,6.5504,6.5512,6.5527,6.5535,6.5540,6.5540,6.5540,6.5535,6.5525,6.5522,6.5512,6.5499,6.5492,6.5486,6.5474,6.5469,6.5461,6.5453,6.5443,6.5430,6.5425,6.5412,6.5405,6.5395,6.5392,6.5390,6.5392,6.5392,6.5390,6.5387,6.5384,6.5372,6.5369,6.5362,6.5356,6.5344,6.5341,6.5334,6.5321,6.5321,6.5308,6.5301,6.5298,6.5290,6.5285,6.5280,6.5278,6.5273,6.5263,6.5265,6.5255,6.5250,6.5252,6.5242,6.5242,6.5240,6.5235,6.5232,6.5222,6.5217,6.5214,6.5209,6.5212,6.5219,6.5245,6.5268,6.5288,6.5311,6.5334,6.5349,6.5372,6.5400,6.5420,6.5443,6.5466,6.5481,6.5504,6.5532,6.5553,6.5576,6.5594,6.5620,6.5643,6.5661,6.5681,6.5709,6.5727,6.5751,6.5774,6.5797,6.5820,6.5854,6.5874,6.5905,6.5929,6.5960,6.5993,6.6043,6.6103,6.6152,6.6215,6.6264,6.6319,6.6382,6.6435,6.6495,6.6553,6.6606,6.6691,6.6770,6.6855,6.6940,6.7029,6.7112,6.7203,6.7284,6.7370,6.7462,6.7699,6.8006,6.8332,6.8656,6.8992,7.1020,7.1020,7.1020,7.1020,7.1020,7.1020,7.1020,7.1020,7.1020,7.1020,7.1020,7.1020,7.1020,7.1020,7.1020,7.1020,7.1020,7.1020,7.1020,7.1020,7.1020,7.1020,7.1020,7.1020,7.1020,7.1020,7.1020,7.1020,7.1020,7.1020,7.1020,7.1020,7.1020,7.1020,7.1020,7.1020,7.1020,7.1020,7.1020,7.1020,7.1020,7.1020,7.1020,7.1020,7.1020,7.1020,7.1020,7.1020,7.1020,7.1020,7.1020,7.1020,7.1020,7.1020,7.1020,7.1020,7.1020,7.1020,7.1020,7.1020,7.1020,7.1020,7.1020,7.1020,7.1020,7.1020,7.1020,7.1020,7.1020,7.1020
7.0960,7.0960,7.0960,7.0960,7.0960,7.0960,7.0960,7.0960,7.0960,7.0960,7.0960,7.0960,7.0960,7.0960,7.0960,7.0960,7.0960,7.0960,7.0960,7.0960,7.0960,7.0960,7.0960,7.0960,7.0960,7.0960,7.0960,7.0960,7.0960,7.0960,7.0960,7.0960,7.0960,7.0960,7.0960,7.0960,7.0960,7.0960,7.0960,7.0960,7.0960,7.0960,7.0960,7.0960,7.0960,7.0960,7.0960,7.0960,7.0960,7.0960,7.0960,7.0960,7.0960,7.0960,7.0960,7.0960,7.0960,7.0960,7.0960,7.0960,7.0960,7.0960,7.0960,7.0960,7.0960,7.0960,7.0960,7.0960,7.0960,7.0960,7.0960,7.0960,7.0960,7.0960,7.0960,7.0960,7.0960,7.0960,7.0960,7.0960,7.0960,7.0960,7.0960,7.0960,7.0960,7.0960,7.0960,7.0960,7.0960,7.0960,7.0960,7.0960,7.0960,7.0960,7.0960,7.0960,7.0960,7.0960,7.0960,7.0960,7.0960,7.0960,7.0960,7.0960,7.0960,7.0960,7.0960,7.0960,7.0960,7.0960,7.0960,7.0960,7.0960,7.0960,7.0960,7.0960,7.0960,7.0960,7.0960,7.0960,7.0960,7.0960,7.0960,7.0960,7.0960,7.0960,7.0960,7.0960,7.0960,7.0960,7.0960,7.0960,7.0960,7.0960,7.0960,6.8133,6.7524,6.7010,6.6919,6.6836,6.6741,6.6659,6.6569,6.6477,6.6387,6.6306,6.6212,6.6121,6.6022,6.5926,6.5833,6.5733,6.5709,6.5676,6.5645,6.5622,6.5594,6.5563,6.5530,6.5499,6.5466,6.5433,6.5395,6.5364,6.5344,6.5321,6.5308,6.5285,6.5270,6.5252,6.5232,6.5207,6.5189,6.5164,6.5133,6.5111,6.5091,6.5075,6.5083,6.5093,6.5093,6.5098,6.5111,6.5111,6.5121,6.5123,6.5128,6.5133,6.5131,6.5131,6.5136,6.5131,6.5131,6.5126,6.5121,6.5116,6.5116,6.5108,6.5103,6.5098,6.5098,6.5093,6.5085,6.5080,6.5080,6.5070,6.5070,6.5073,6.5088,6.5116,6.5136,6.5159,6.5179,6.5202,6.5217,6.5245,6.5260,6.5288,6.5303,6.5331,6.5329,6.5339,6.5344,6.5341,6.5351,6.5356,6.5354,6.5359,6.5364,6.5367,6.5382,6.5390,6.5407,6.5415,6.5433,6.5441,6.5456,6.5453,6.5453,6.5453,6.5458,6.5446,6.5443,6.5428,6.5425,6.5415,6.5407,6.5400,6.5390,6.5377,6.5369,6.5364,6.5356,6.5341,6.5334,6.5326,6.5321,6.5313,6.5318,6.5321,6.5321,6.5323,6.5318,6.5316,6.5303,6.5296,6.5290,6.5283,6.5275,6.5273,6.5260,6.5260,6.5247,6.5240,6.5237,6.5230,6.5224,6.5214,6.5212,6.5207,6.5207,6.5197,6.5194,6.5189,6.5192,6.5181,6.5176,6.5179,6.5169,6.5169,6.5161,6.5161,6.5154,6.5159,6.5176,6.5189,6.5202,6.5217,6.5240,6.5263,6.5278,6.5301,6.5323,6.5349,6.5367,6.5395,6.5410,6.5433,6.5456,6.5476,6.5504,6.5522,6.5543,6.5571,6.5589,6.5609,6.5637,6.5655,6.5676,6.5699,6.5727,6.5745,6.5774,6.5797,6.5823,6.5851,6.5877,6.5903,6.5934,6.5996,6.6045,6.6100,6.6157,6.6212,6.6272,6.6324,6.6379,6.6437,6.6500,6.6550,6.6609,6.6675,6.6759,6.6844,6.6924,6.7015,6.7095,6.7187,6.7273,6.7354,6.7462,6.7764,6.8075,6.8396,6.8726,6.9063,7.0960,7.0960,7.0960,7.0960,7.0960,7.0960,7.0960,7.0960,7.0960,7.0960,7.0960,7.0960,7.0960,7.0960,7.0960,7.0960,7.0960,7.0960,7.0960,7.0960,7.0960,7.0960,7.0960,7.0960,7.0960,7.0960,7.0960,7.0960,7.0960,7.0960,7.0960,7.0960,7.0960,7.0960,7.0960,7.0960,7.0960,7.0960,7.0960,7.0960,7.0960,7.0960,7.0960,7.0960,7.0960,7.0960,7.0960,7.0960,7.0960,7.0960,7.0960,7.0960,7.0960,7.0960,7.0960,7.0960,7.0960,7.0960,7.0960,7.0960,7.0960,7.0960,7.0960,7.0960,7.0960,7.0960,7.0960,7.0960,7.0960,7.0960
7.0903,7.0903,7.0903,7.0903,7.0903,7.0903,7.0903,7.0903,7.0903,7.0903,7.0903,7.0903,7.0903,7.0903,7.0903,7.0903,7.0903,7.0903,7.0903,7.0903,7.0903,7.0903,7.0903,7.0903,7.0903,7.0903,7.0903,7.0903,7.0903,7.0903,7.0903,7.0903,7.0903,7.0903,7.0903,7.0903,7.0903,7.0903,7.0903,7.0903,7.0903,7.0903,7.0903,7.0903,7.0903,7.0903,7.0903,7.0903,7.0903,7.0903,7.0903,7.0903,7.0903,7.0903,7.0903,7.0903,7.0903,7.0903,7.0903,7.0903,7.0903,7.0903,7.0903,7.0903,7.0903,7.0903,7.0903,7.0903,7.0903,7.0903,7.0903,7.0903,7.0903,7.0903,7.0903,7.0903,7.0903,7.0903,7.0903,7.0903,7.0903,7.0903,7.0903,7.0903,7.0903,7.0903,7.0903,7.0903,7.0903,7.0903,7.0903,7.0903,7.0903,7.0903,7.0903,7.0903,7.0903,7.0903,7.0903,7.0903,7.0903,7.0903,7.0903,7.0903,7.0903,7.0903,7.0903,7.0903,7.0903,7.0903,7.0903,7.0903,7.0903,7.0903,7.0903,7.0903,7.0903,7.0903,7.0903,7.0903,7.0903,7.0903,7.0903,7.0903,7.0903,7.0903,7.0903,7.0903,7.0903,7.0903,7.0903,7.0903,7.0903,7.0903,7.0903,6.8352,6.7737,6.7114,6.6919,6.6829,6.6744,6.6656,6.6564,6.6479,6.6387,6.6298,6.6209,6.6118,6.6025,6.5921,6.5830,6.5727,6.5684,6.5653,6.5625,6.5591,6.5561,6.5530,6.5502,6.5466,6.5438,6.5400,6.5367,6.5344,6.5334,6.5311,6.5293,6.5275,6.5263,6.5240,6.5219,6.5194,6.5176,6.5146,6.5128,6.5098,6.5073,6.5055,6.5048,6.5048,6.5060,6.5065,6.5070,6.5073,6.5078,6.5083,6.5093,6.5093,6.5093,6.5088,6.5093,6.5093,6.5093,6.5085,6.5085,6.5078,6.5078,6.5068,6.5068,6.5058,6.5060,6.5055,6.5045,6.5045,6.5035,6.5033,6.5030,6.5030,6.5025,6.5025,6.5030,6.5055,6.5073,6.5093,6.5116,6.5136,6.5164,6.5184,6.5202,6.5227,6.5230,6.5237,6.5242,6.5242,6.5250,6.5255,6.5255,6.5260,6.5268,6.5280,6.5293,6.5311,6.5318,6.5336,6.5344,6.5356,6.5369,6.5369,6.5364,6.5369,6.5367,6.5367,6.5364,6.5349,6.5341,6.5336,6.5323,6.5321,6.5311,6.5303,6.5288,6.5285,6.5273,6.5263,6.5255,6.5245,6.5245,6.5247,6.5242,6.5245,6.5250,6.5247,6.5252,6.5242,6.5240,6.5235,6.5222,6.5214,6.5212,6.5204,6.5199,6.5187,6.5179,6.5176,6.5164,6.5164,6.5154,6.5156,6.5151,6.5146,6.5136,6.5133,6.5133,6.5128,6.5126,6.5121,6.5116,6.5113,6.5108,6.5106,6.5106,6.5113,6.5126,6.5141,6.5154,6.5166,6.5176,6.5189,6.5207,6.5235,6.5257,6.5278,6.5301,6.5318,6.5344,6.5362,6.5384,6.5410,6.5433,6.5456,6.5476,6.5499,6.5517,6.5540,6.5561,6.5589,6.5609,6.5627,6.5650,6.5673,6.5699,6.5722,6.5745,6.5769,6.5789,6.5818,6.5843,6.5887,6.5944,6.5999,6.6053,6.6108,6.6165,6.6215,6.6275,6.6332,6.6390,6.6440,6.6498,6.6561,6.6611,6.6675,6.6741,6.6823,6.6914,6.6994,6.7085,6.7165,6.7251,6.7343,6.7527,6.7830,6.8138,6.8466,6.8800,7.0903,7.0903,7.0903,7.0903,7.0903,7.0903,7.0903,7.0903,7.0903,7.0903,7.0903,7.0903,7.0903,7.0903,7.0903,7.0903,7.0903,7.0903,7.0903,7.0903,7.0903,7.0903,7.0903,7.0903,7.0903,7.0903,7.0903,7.0903,7.0903,7.0903,7.0903,7.0903,7.0903,7.0903,7.0903,7.0903,7.0903,7.0903,7.0903,7.0903,7.0903,7.0903,7.0903,7.0903,7.0903,7.0903,7.0903,7.0903,7.0903,7.0903,7.0903,7.0903,7.0903,7.0903,7.0903,7.0903,7.0903,7.0903,7.0903,7.0903,7.0903,7.0903,7.0903,7.0903,7.0903,7.0903,7.0903,7.0903,7.0903,7.0903,7.0903
7.0846,7.0846,7.0846,7.0846,7.0846,7.0846,7.0846,7.0846,7.0846,7.0846,7.0846,7.0846,7.0846,7.0846,7.0846,7.0846,7.0846,7.0846,7.0846,7.0846,7.0846,7.0846,7.0846,7.0846,7.0846,7.0846,7.0846,7.0846,7.0846,7.0846,7.0846,7.0846,7.0846,7.0846,7.0846,7.0846,7.0846,7.0846,7.0846,7.0846,7.0846,7.0846,7.0846,7.0846,7.0846,7.0846,7.0846,7.0846,7.0846,7.0846,7.0846,7.0846,7.0846,7.0846,7.0846,7.0846,7.0846,7.0846,7.0846,7.0846,7.0846,7.0846,7.0846,7.0846,7.0846,7.0846,7.0846,7.0846,7.0846,7.0846,7.0846,7.0846,7.0846,7.0846,7.0846,7.0846,7.0846,7.0846,7.0846,7.0846,7.0846,7.0846,7.0846,7.0846,7.0846,7.0846,7.0846,7.0846,7.0846,7.0846,7.0846,7.0846,7.0846,7.0846,7.0846,7.0846,7.0846,7.0846,7.0846,7.0846,7.0846,7.0846,7.0846,7.0846,7.0846,7.0846,7.0846,7.0846,7.0846,7.0846,7.0846,7.0846,7.0846,7.0846,7.0846,7.0846,7.0846,7.0846,7.0846,7.0846,7.0846,7.0846,7.0846,7.0846,7.0846,7.0846,7.0846,7.0846,7.0846,7.0846,7.0846,7.0846,7.0846,7.0846,7.0846,7.0846,6.7948,6.7335,6.6919,6.6834,6.6738,6.6653,6.6561,6.6477,6.6390,6.6301,6.6209,6.6113,6.6014,6.5918,6.5820,6.5722,6.5650,6.5622,6.5594,6.5563,6.5535,6.5502,6.5476,6.5438,6.5410,6.5377,6.5351,6.5339,6.5321,6.5298,6.5285,6.5263,6.5247,6.5235,6.5212,6.5181,6.5159,6.5138,6.5116,6.5085,6.5063,6.5038,6.5017,6.5010,6.5015,6.5025,6.5033,6.5038,6.5038,6.5045,6.5053,6.5050,6.5045,6.5045,6.5050,6.5050,6.5045,6.5050,6.5043,6.5043,6.5038,6.5033,6.5028,6.5025,6.5020,6.5015,6.5012,6.5002,6.5002,6.5000,6.4997,6.5002,6.4997,6.4995,6.4985,6.4985,6.4980,6.4997,6.5020,6.5035,6.5058,6.5078,6.5106,6.5126,6.5133,6.5133,6.5144,6.5141,6.5146,6.5156,6.5166,6.5179,6.5187,6.5202,6.5209,6.5222,6.5240,6.5252,6.5260,6.5278,6.5283,6.5278,6.5278,6.5283,6.5283,6.5280,6.5278,6.5275,6.5263,6.5257,6.5250,6.5237,6.5232,6.5224,6.5209,6.5207,6.5194,6.5189,6.5176,6.5171,6.5169,6.5174,6.5176,6.5174,6.5179,6.5176,6.5181,6.5179,6.5169,6.5166,6.5159,6.5146,6.5144,6.5133,6.5126,6.5118,6.5111,6.5103,6.5103,6.5098,6.5096,6.5091,6.5080,6.5075,6.5073,6.5073,6.5068,6.5065,6.5055,6.5055,6.5053,6.5048,6.5060,6.5068,6.5078,6.5091,6.5108,6.5121,6.5126,6.5144,6.5154,6.5169,6.5181,6.5207,6.5224,6.5252,6.5268,6.5290,6.5318,6.5339,6.5356,6.5384,6.5405,6.5423,6.5451,6.5469,6.5494,6.5512,6.5535,6.5555,6.5584,6.5607,6.5622,6.5650,6.5668,6.5694,6.5712,6.5740,6.5766,6.5787,6.5836,6.5890,6.5947,6.6001,6.6056,6.6108,6.6162,6.6222,6.6272,6.6330,6.6393,6.6448,6.6500,6.6564,6.6622,6.6677,6.6736,6.6815,6.6900,6.6986,6.7071,6.7152,6.7238,6.7330,6.7595,6.7890,6.8213,6.8541,6.8882,7.0846,7.0846,7.0846,7.0846,7.0846,7.0846,7.0846,7.0846,7.0846,7.0846,7.0846,7.0846,7.0846,7.0846,7.0846,7.0846,7.0846,7.0846,7.0846,7.0846,7.0846,7.0846,7.0846,7.0846,7.0846,7.0846,7.0846,7.0846,7.0846,7.0846,7.0846,7.0846,7.0846,7.0846,7.0846,7.0846,7.0846,7.0846,7.0846,7.0846,7.0846,7.0846,7.0846,7.0846,7.0846,7.0846,7.0846,7.0846,7.0846,7.0846,7.0846,7.0846,7.0846,7.0846,7.0846,7.0846,7.0846,7.0846,7.0846,7.0846,7.0846,7.0846,7.0846,7.0846,7.0846,7.0846,7.0846,7.0846,7.0846,7.0846,7.0846
7.0789,7.0789,7.0789,7.0789,7.0789,7.0789,7.0789,7.0789,7.0789,7.0789,7.0789,7.0789,7.0789,7.0789,7.0789,7.0789,7.0789,7.0789,7.0789,7.0789,7.0789,7.0789,7.0789,7.0789,7.0789,7.0789,7.0789,7.0789,7.0789,7.0789,7.0789,7.0789,7.0789,7.0789,7.0789,7.0789,7.0789,7.0789,7.0789,7.0789,7.0789,7.0789,7.0789,7.0789,7.0789,7.0789,7.0789,7.0789,7.0789,7.0789,7.0789,7.0789,7.0789,7.0789,7.0789,7.0789,7.0789,7.0789,7.0789,7.0789,7.0789,7.0789,7.0789,7.0789,7.0789,7.0789,7.0789,7.0789,7.0789,7.0789,7.0789,7.0789,7.0789,7.0789,7.0789,7.0789,7.0789,7.0789,7.0789,7.0789,7.0789,7.0789,7.0789,7.0789,7.0789,7.0789,7.0789,7.0789,7.0789,7.0789,7.0789,7.0789,7.0789,7.0789,7.0789,7.0789,7.0789,7.0789,7.0789,7.0789,7.0789,7.0789,7.0789,7.0789,7.0789,7.0789,7.0789,7.0789,7.0789,7.0789,7.0789,7.0789,7.0789,7.0789,7.0789,7.0789,7.0789,7.0789,7.0789,7.0789,7.0789,7.0789,7.0789,7.0789,7.0789,7.0789,7.0789,7.0789,7.0789,7.0789,7.0789,7.0789,7.0789,7.0789,7.0789,7.0789,6.8171,6.7552,6.6924,6.6829,6.6738,6.6653,6.6564,6.6474,6.6382,6.6298,6.6207,6.6110,6.6017,6.5913,6.5823,6.5725,6.5630,6.5602,6.5566,6.5538,6.5507,6.5476,6.5443,6.5415,6.5382,6.5356,6.5339,6.5323,6.5311,6.5293,6.5275,6.5257,6.5240,6.5217,6.5199,6.5169,6.5151,6.5121,6.5103,6.5078,6.5050,6.5025,6.5005,6.4977,6.4980,6.4987,6.4987,6.4992,6.5000,6.5010,6.5002,6.5007,6.5007,6.5002,6.5002,6.5007,6.5007,6.5002,6.5007,6.5002,6.4995,6.4995,6.4985,6.4985,6.4982,6.4972,6.4967,6.4965,6.4960,6.4962,6.4962,6.4965,6.4962,6.4962,6.4952,6.4947,6.4947,6.4942,6.4939,6.4934,6.4960,6.4982,6.5002,6.5025,6.5030,6.5038,6.5038,6.5048,6.5058,6.5070,6.5083,6.5096,6.5103,6.5121,6.5128,6.5146,6.5159,6.5171,6.5181,6.5194,6.5192,6.5192,6.5197,6.5197,6.5192,6.5192,6.5197,6.5197,6.5184,6.5179,6.5166,6.5161,6.5154,6.5141,6.5136,6.5123,6.5113,6.5106,6.5103,6.5096,6.5103,6.5103,6.5106,6.5108,6.5103,6.5106,6.5111,6.5106,6.5101,6.5098,6.5085,6.5078,6.5070,6.5070,6.5058,6.5055,6.5048,6.5038,6.5038,6.5035,6.5030,6.5020,6.5015,6.5012,6.5007,6.5002,6.5002,6.5000,6.4995,6.5002,6.5015,6.5025,6.5033,6.5050,6.5055,6.5073,6.5080,6.5093,6.5108,6.5118,6.5136,6.5146,6.5166,6.5176,6.5197,6.5219,6.5242,6.5268,6.5290,6.5313,6.5334,6.5356,6.5374,6.5402,6.5418,6.5441,6.5463,6.5489,6.5507,6.5535,6.5555,6.5579,6.5602,6.5617,6.5645,6.5668,6.5684,6.5707,6.5733,6.5784,6.5838,6.5895,6.5949,6.5999,6.6053,6.6110,6.6165,6.6220,6.6277,6.6338,6.6390,6.6453,6.6508,6.6561,6.6624,6.6680,6.6733,6.6794,6.6879,6.6970,6.7050,6.7141,6.7222,6.7359,6.7658,6.7956,6.8277,6.8620,6.8969,7.0789,7.0789,7.0789,7.0789,7.0789,7.0789,7.0789,7.0789,7.0789,7.0789,7.0789,7.0789,7.0789,7.0789,7.0789,7.0789,7.0789,7.0789,7.0789,7.0789,7.0789,7.0789,7.0789,7.0789,7.0789,7.0789,7.0789,7.0789,7.0789,7.0789,7.0789,7.0789,7.0789,7.0789,7.0789,7.0789,7.0789,7.0789,7.0789,7.0789,7.0789,7.0789,7.0789,7.0789,7.0789,7.0789,7.0789,7.0789,7.0789,7.0789,7.0789,7.0789,7.0789,7.0789,7.0789,7.0789,7.0789,7.0789,7.0789,7.0789,7.0789,7.0789,7.0789,7.0789,7.0789,7.0789,7.0789,7.0789,7.0789,7.0789,7.0789
7.0738,7.0738,7.0738,7.0738,7.0738,7.0738,7.0738,7.0738,7.0738,7.0738,7.0738,7.0738,7.0738,7.0738,7.0738,7.0738,7.0738,7.0738,7.0738,7.0738,7.0738,7.0738,7.0738,7.0738,7.0738,7.0738,7.0738,7.0738,7.0738,7.0738,7.0738,7.0738,7.0738,7.0738,7.0738,7.0738,7.0738,7.0738,7.0738,7.0738,7.0738,7.0738,7.0738,7.0738,7.0738,7.0738,7.0738,7.0738,7.0738,7.0738,7.0738,7.0738,7.0738,7.0738,7.0738,7.0738,7.0738,7.0738,7.0738,7.0738,7.0738,7.0738,7.0738,7.0738,7.0738,7.0738,7.0738,7.0738,7.0738,7.0738,7.0738,7.0738,7.0738,7.0738,7.0738,7.0738,7.0738,7.0738,7.0738,7.0738,7.0738,7.0738,7.0738,7.0738,7.0738,7.0738,7.0738,7.0738,7.0738,7.0738,7.0738,7.0738,7.0738,7.0738,7.0738,7.0738,7.0738,7.0738,7.0738,7.0738,7.0738,7.0738,7.0738,7.0738,7.0738,7.0738,7.0738,7.0738,7.0738,7.0738,7.0738,7.0738,7.0738,7.0738,7.0738,7.0738,7.0738,7.0738,7.0738,7.0738,7.0738,7.0738,7.0738,7.0738,7.0738,7.0738,7.0738,7.0738,7.0738,7.0738,7.0738,7.0738,7.0738,7.0738,7.0738,7.0738,6.8407,6.7775,6.7168,6.6829,6.6738,6.6648,6.6558,6.6469,6.6379,6.6290,6.6209,6.6110,6.6009,6.5916,6.5812,6.5720,6.5620,6.5573,6.5540,6.5512,6.5479,6.5453,6.5415,6.5387,6.5364,6.5346,6.5334,6.5316,6.5298,6.5280,6.5257,6.5242,6.5224,6.5207,6.5187,6.5159,6.5138,6.5113,6.5091,6.5065,6.5038,6.5017,6.4995,6.4965,6.4945,6.4942,6.4950,6.4960,6.4965,6.4967,6.4960,6.4965,6.4965,6.4960,6.4965,6.4960,6.4960,6.4960,6.4962,6.4965,6.4955,6.4952,6.4952,6.4947,6.4942,6.4934,6.4934,6.4929,6.4924,6.4932,6.4934,6.4934,6.4929,6.4929,6.4919,6.4919,6.4914,6.4912,6.4902,6.4902,6.4892,6.4892,6.4902,6.4922,6.4934,6.4934,6.4945,6.4957,6.4975,6.4987,6.5000,6.5007,6.5025,6.5038,6.5050,6.5063,6.5075,6.5088,6.5101,6.5106,6.5106,6.5111,6.5111,6.5106,6.5106,6.5111,6.5106,6.5106,6.5108,6.5101,6.5088,6.5083,6.5075,6.5065,6.5053,6.5045,6.5040,6.5033,6.5025,6.5025,6.5033,6.5028,6.5035,6.5035,6.5038,6.5040,6.5040,6.5043,6.5033,6.5030,6.5017,6.5015,6.5010,6.5002,6.4995,6.4987,6.4977,6.4972,6.4975,6.4965,6.4965,6.4955,6.4957,6.4947,6.4942,6.4937,6.4945,6.4957,6.4967,6.4975,6.4987,6.5002,6.5010,6.5028,6.5035,6.5050,6.5058,6.5075,6.5080,6.5096,6.5116,6.5123,6.5138,6.5159,6.5171,6.5197,6.5219,6.5242,6.5263,6.5280,6.5308,6.5329,6.5346,6.5369,6.5397,6.5412,6.5441,6.5463,6.5484,6.5507,6.5525,6.5550,6.5568,6.5596,6.5617,6.5640,6.5658,6.5681,6.5733,6.5781,6.5836,6.5898,6.5947,6.6001,6.6058,6.6118,6.6173,6.6228,6.6285,6.6340,6.6398,6.6456,6.6508,6.6564,6.6622,6.6685,6.6736,6.6799,6.6866,6.6954,6.7034,6.7125,6.7208,6.7430,6.7723,6.8028,6.8354,6.8710,7.0738,7.0738,7.0738,7.0738,7.0738,7.0738,7.0738,7.0738,7.0738,7.0738,7.0738,7.0738,7.0738,7.0738,7.0738,7.0738,7.0738,7.0738,7.0738,7.0738,7.0738,7.0738,7.0738,7.0738,7.0738,7.0738,7.0738,7.0738,7.0738,7.0738,7.0738,7.0738,7.0738,7.0738,7.0738,7.0738,7.0738,7.0738,7.0738,7.0738,7.0738,7.0738,7.0738,7.0738,7.0738,7.0738,7.0738,7.0738,7.0738,7.0738,7.0738,7.0738,7.0738,7.0738,7.0738,7.0738,7.0738,7.0738,7.0738,7.0738,7.0738,7.0738,7.0738,7.0738,7.0738,7.0738,7.0738,7.0738,7.0738,7.0738,7.0738,7.0738
7.0679,7.0679,7.0679,7.0679,7.0679,7.0679,7.0679,7.0679,7.0679,7.0679,7.0679,7.0679,7.0679,7.0679,7.0679,7.0679,7.0679,7.0679,7.0679,7.0679,7.0679,7.0679,7.0679,7.0679,7.0679,7.0679,7.0679,7.0679,7.0679,7.0679,7.0679,7.0679,7.0679,7.0679,7.0679,7.0679,7.0679,7.0679,7.0679,7.0679,7.0679,7.0679,7.0679,7.0679,7.0679,7.0679,7.0679,7.0679,7.0679,7.0679,7.0679,7.0679,7.0679,7.0679,7.0679,7.0679,7.0679,7.0679,7.0679,7.0679,7.0679,7.0679,7.0679,7.0679,7.0679,7.0679,7.0679,7.0679,7.0679,7.0679,7.0679,7.0679,7.0679,7.0679,7.0679,7.0679,7.0679,7.0679,7.0679,7.0679,7.0679,7.0679,7.0679,7.0679,7.0679,7.0679,7.0679,7.0679,7.0679,7.0679,7.0679,7.0679,7.0679,7.0679,7.0679,7.0679,7.0679,7.0679,7.0679,7.0679,7.0679,7.0679,7.0679,7.0679,7.0679,7.0679,7.0679,7.0679,7.0679,7.0679,7.0679,7.0679,7.0679,7.0679,7.0679,7.0679,7.0679,7.0679,7.0679,7.0679,7.0679,7.0679,7.0679,7.0679,7.0679,7.0679,7.0679,7.0679,7.0679,7.0679,7.0679,7.0679,7.0679,7.0679,7.0679,7.0679,7.0679,6.7992,6.7394,6.6829,6.6744,6.6648,6.6558,6.6474,6.6379,6.6296,6.6202,6.6108,6.6009,6.5905,6.5810,6.5717,6.5614,6.5543,6.5517,6.5484,6.5458,6.5420,6.5387,6.5369,6.5356,6.5334,6.5316,6.5306,6.5288,6.5270,6.5252,6.5235,6.5217,6.5194,6.5174,6.5151,6.5121,6.5098,6.5078,6.5048,6.5030,6.5000,6.4977,6.4952,6.4934,6.4909,6.4914,6.4919,6.4924,6.4917,6.4922,6.4917,6.4922,6.4917,6.4919,6.4924,6.4922,6.4927,6.4929,6.4922,6.4917,6.4912,6.4914,6.4909,6.4904,6.4894,6.4897,6.4889,6.4897,6.4892,6.4894,6.4897,6.4902,6.4892,6.4887,6.4887,6.4884,6.4879,6.4874,6.4864,6.4864,6.4859,6.4854,6.4847,6.4847,6.4857,6.4864,6.4882,6.4892,6.4899,6.4917,6.4929,6.4937,6.4955,6.4962,6.4980,6.4992,6.5000,6.5017,6.5022,6.5020,6.5025,6.5025,6.5020,6.5025,6.5020,6.5020,6.5025,6.5020,6.5022,6.5010,6.5000,6.4997,6.4982,6.4975,6.4967,6.4957,6.4957,6.4955,6.4955,6.4962,6.4962,6.4965,6.4965,6.4962,6.4965,6.4970,6.4972,6.4965,6.4962,6.4950,6.4945,6.4937,6.4929,6.4927,6.4917,6.4917,6.4909,6.4909,6.4904,6.4899,6.4892,6.4887,6.4889,6.4899,6.4904,6.4917,6.4934,6.4945,6.4957,6.4965,6.4980,6.4987,6.5005,6.5017,6.5028,6.5040,6.5053,6.5060,6.5078,6.5093,6.5103,6.5121,6.5136,6.5151,6.5171,6.5187,6.5214,6.5237,6.5257,6.5280,6.5303,6.5321,6.5341,6.5364,6.5387,6.5407,6.5435,6.5453,6.5479,6.5502,6.5525,6.5540,6.5568,6.5586,6.5607,6.5630,6.5679,6.5733,6.5787,6.5841,6.5900,6.5955,6.6004,6.6061,6.6121,6.6170,6.6228,6.6283,6.6340,6.6395,6.6458,6.6511,6.6569,6.6624,6.6688,6.6741,6.6797,6.6860,6.6940,6.7021,6.7106,6.7200,6.7489,6.7792,6.8099,6.8444,6.8797,7.0679,7.0679,7.0679,7.0679,7.0679,7.0679,7.0679,7.0679,7.0679,7.0679,7.0679,7.0679,7.0679,7.0679,7.0679,7.0679,7.0679,7.0679,7.0679,7.0679,7.0679,7.0679,7.0679,7.0679,7.0679,7.0679,7.0679,7.0679,7.0679,7.0679,7.0679,7.0679,7.0679,7.0679,7.0679,7.0679,7.0679,7.0679,7.0679,7.0679,7.0679,7.0679,7.0679,7.0679,7.0679,7.0679,7.0679,7.0679,7.0679,7.0679,7.0679,7.0679,7.0679,7.0679,7.0679,7.0679,7.0679,7.0679,7.0679,7.0679,7.0679,7.0679,7.0679,7.0679,7.0679,7.0679,7.0679,7.0679,7.0679,7.0679,7.0679,7.0679
7.0622,7.0622,7.0622,7.0622,7.0622,7.0622,7.0622,7.0622,7.0622,7.0622,7.0622,7.0622,7.0622,7.0622,7.0622,7.0622,7.0622,7.0622,7.0622,7.0622,7.0622,7.0622,7.0622,7.0622,7.0622,7.0622,7.0622,7.0622,7.0622,7.0622,7.0622,7.0622,7.0622,7.0622,7.0622,7.0622,7.0622,7.0622,7.0622,7.0622,7.0622,7.0622,7.0622,7.0622,7.0622,7.0622,7.0622,7.0622,7.0622,7.0622,7.0622,7.0622,7.0622,7.0622,7.0622,7.0622,7.0622,7.0622,7.0622,7.0622,7.0622,7.0622,7.0622,7.0622,7.0622,7.0622,7.0622,7.0622,7.0622,7.0622,7.0622,7.0622,7.0622,7.0622,7.0622,7.0622,7.0622,7.0622,7.0622,7.0622,7.0622,7.0622,7.0622,7.0622,7.0622,7.0622,7.0622,7.0622,7.0622,7.0622,7.0622,7.0622,7.0622,7.0622,7.0622,7.0622,7.0622,7.0622,7.0622,7.0622,7.0622,7.0622,7.0622,7.0622,7.0622,7.0622,7.0622,7.0622,7.0622,7.0622,7.0622,7.0622,7.0622,7.0622,7.0622,7.0622,7.0622,7.0622,7.0622,7.0622,7.0622,7.0622,7.0622,7.0622,7.0622,7.0622,7.0622,7.0622,7.0622,7.0622,7.0622,7.0622,7.0622,7.0622,7.0622,7.0622,7.0622,6.8221,6.7617,6.6890,6.6738,6.6653,6.6558,6.6474,6.6379,6.6296,6.6204,6.6103,6.6006,6.5908,6.5810,6.5709,6.5612,6.5520,6.5486,6.5458,6.5430,6.5392,6.5374,6.5364,6.5346,6.5329,6.5306,6.5288,6.5275,6.5252,6.5240,6.5222,6.5207,6.5187,6.5161,6.5133,6.5108,6.5091,6.5065,6.5040,6.5017,6.4987,6.4965,6.4945,6.4917,6.4897,6.4869,6.4882,6.4877,6.4874,6.4882,6.4877,6.4884,6.4879,6.4882,6.4887,6.4889,6.4889,6.4887,6.4887,6.4879,6.4879,6.4874,6.4867,6.4867,6.4862,6.4859,6.4854,6.4857,6.4864,6.4867,6.4862,6.4864,6.4859,6.4859,6.4857,6.4847,6.4842,6.4842,6.4837,6.4827,6.4829,6.4819,6.4819,6.4814,6.4807,6.4797,6.4794,6.4812,6.4824,6.4837,6.4849,6.4857,6.4872,6.4884,6.4897,6.4904,6.4917,6.4929,6.4932,6.4932,6.4939,6.4934,6.4939,6.4934,6.4939,6.4939,6.4934,6.4939,6.4934,6.4932,6.4927,6.4914,6.4909,6.4897,6.4894,6.4884,6.4882,6.4884,6.4889,6.4887,6.4892,6.4889,6.4894,6.4892,6.4897,6.4894,6.4902,6.4902,6.4889,6.4889,6.4877,6.4869,6.4862,6.4857,6.4852,6.4849,6.4849,6.4839,6.4834,6.4837,6.4847,6.4857,6.4862,6.4877,6.4882,6.4899,6.4912,6.4917,6.4934,6.4942,6.4957,6.4965,6.4982,6.4995,6.5000,6.5012,6.5030,6.5043,6.5058,6.5068,6.5085,6.5101,6.5113,6.5128,6.5144,6.5166,6.5181,6.5204,6.5232,6.5252,6.5270,6.5293,6.5321,6.5336,6.5364,6.5382,6.5402,6.5430,6.5453,6.5469,6.5497,6.5520,6.5535,6.5563,6.5581,6.5632,6.5689,6.5743,6.5792,6.5843,6.5903,6.5952,6.6014,6.6069,6.6118,6.6178,6.6230,6.6290,6.6343,6.6406,6.6461,6.6519,6.6577,6.6632,6.6685,6.6744,6.6807,6.6863,6.6919,6.7004,6.7095,6.7259,6.7554,6.7860,6.8191,6.8539,7.0622,7.0622,7.0622,7.0622,7.0622,7.0622,7.0622,7.0622,7.0622,7.0622,7.0622,7.0622,7.0622,7.0622,7.0622,7.0622,7.0622,7.0622,7.0622,7.0622,7.0622,7.0622,7.0622,7.0622,7.0622,7.0622,7.0622,7.0622,7.0622,7.0622,7.0622,7.0622,7.0622,7.0622,7.0622,7.0622,7.0622,7.0622,7.0622,7.0622,7.0622,7.0622,7.0622,7.0622,7.0622,7.0622,7.0622,7.0622,7.0622,7.0622,7.0622,7.0622,7.0622,7.0622,7.0622,7.0622,7.0622,7.0622,7.0622,7.0622,7.0622,7.0622,7.0622,7.0622,7.0622,7.0622,7.0622,7.0622,7.0622,7.0622,7.0622,7.0622,7.0622
7.0566,7.0566,7.0566,7.0566,7.0566,7.0566,7.0566,7.0566,7.0566,7.0566,7.0566,7.0566,7.0566,7.0566,7.0566,7.0566,7.0566,7.0566,7.0566,7.0566,7.0566,7.0566,7.0566,7.0566,7.0566,7.0566,7.0566,7.0566,7.0566,7.0566,7.0566,7.0566,7.0566,7.0566,7.0566,7.0566,7.0566,7.0566,7.0566,7.0566,7.0566,7.0566,7.0566,7.0566,7.0566,7.0566,7.0566,7.0566,7.0566,7.0566,7.0566,7.0566,7.0566,7.0566,7.0566,7.0566,7.0566,7.0566,7.0566,7.0566,7.0566,7.0566,7.0566,7.0566,7.0566,7.0566,7.0566,7.0566,7.0566,7.0566,7.0566,7.0566,7.0566,7.0566,7.0566,7.0566,7.0566,7.0566,7.0566,7.0566,7.0572,7.0572,7.0572,7.0572,7.0572,7.0572,7.0572,7.0572,7.0572,7.0572,7.0572,7.0572,7.0572,7.0572,7.0572,7.0572,7.0572,7.0572,7.0572,7.0572,7.0572,7.0572,7.0572,7.0572,7.0572,7.0572,7.0572,7.0572,7.0572,7.0572,7.0572,7.0572,7.0572,7.0572,7.0572,7.0572,7.0572,7.0572,7.0572,7.0572,7.0572,7.0572,7.0572,7.0572,7.0572,7.0572,7.0572,7.0572,7.0572,7.0572,7.0572,7.0572,7.0572,7.0572,7.0572,7.0572,7.0572,7.0572,6.7824,6.7219,6.6738,6.6653,6.6558,6.6474,6.6379,6.6293,6.6209,6.6105,6.6009,6.5903,6.5802,6.5704,6.5612,6.5517,6.5466,6.5430,6.5405,6.5387,6.5369,6.5351,6.5329,6.5311,6.5293,6.5278,6.5265,6.5247,6.5230,6.5212,6.5194,6.5174,6.5146,6.5126,6.5096,6.5073,6.5053,6.5030,6.5000,6.4975,6.4952,6.4932,6.4904,6.4884,6.4862,6.4834,6.4842,6.4837,6.4844,6.4844,6.4847,6.4847,6.4844,6.4849,6.4844,6.4852,6.4847,6.4849,6.4839,6.4837,6.4832,6.4827,6.4824,6.4819,6.4824,6.4822,6.4829,6.4824,6.4827,6.4829,6.4829,6.4827,6.4829,6.4819,6.4819,6.4809,6.4804,6.4804,6.4802,6.4792,6.4787,6.4787,6.4782,6.4769,6.4764,6.4759,6.4752,6.4752,6.4749,6.4762,6.4779,6.4792,6.4799,6.4817,6.4829,6.4837,6.4847,6.4847,6.4852,6.4847,6.4852,6.4849,6.4854,6.4849,6.4854,6.4849,6.4849,6.4849,6.4849,6.4844,6.4842,6.4832,6.4824,6.4814,6.4809,6.4812,6.4819,6.4819,6.4822,6.4817,6.4819,6.4824,6.4822,6.4822,6.4824,6.4829,6.4832,6.4822,6.4817,6.4809,6.4802,6.4802,6.4797,6.4789,6.4789,6.4779,6.4789,6.4799,6.4809,6.4824,6.4834,6.4839,6.4854,6.4859,6.4872,6.4884,6.4899,6.4912,6.4924,6.4932,6.4942,6.4955,6.4972,6.4982,6.4995,6.5002,6.5022,6.5030,6.5050,6.5065,6.5073,6.5093,6.5103,6.5116,6.5133,6.5161,6.5181,6.5204,6.5222,6.5245,6.5270,6.5293,6.5316,6.5336,6.5354,6.5382,6.5397,6.5420,6.5443,6.5463,6.5492,6.5509,6.5540,6.5591,6.5637,6.5689,6.5740,6.5794,6.5854,6.5903,6.5957,6.6017,6.6066,6.6126,6.6183,6.6233,6.6293,6.6345,6.6403,6.6461,6.6516,6.6579,6.6638,6.6693,6.6751,6.6805,6.6866,6.6919,6.6994,6.7077,6.7330,6.7630,6.7929,6.8274,6.8631,7.0572,7.0572,7.0572,7.0572,7.0572,7.0572,7.0572,7.0572,7.0572,7.0572,7.0572,7.0572,7.0572,7.0572,7.0572,7.0572,7.0572,7.0572,7.0572,7.0572,7.0572,7.0572,7.0572,7.0572,7.0572,7.0572,7.0572,7.0572,7.0572,7.0572,7.0572,7.0572,7.0572,7.0572,7.0572,7.0572,7.0572,7.0572,7.0572,7.0572,7.0572,7.0572,7.0572,7.0572,7.0572,7.0572,7.0572,7.0572,7.0572,7.0572,7.0572,7.0572,7.0572,7.0572,7.0572,7.0572,7.0572,7.0572,7.0572,7.0572,7.0572,7.0572,7.0572,7.0572,7.0572,7.0572,7.0572,7.0572,7.0572,7.0572,7.0572,7.0572,7.0572
7.0516,7.0516,7.0516,7.0516,7.0516,7.0516,7.0516,7.0516,7.0516,7.0516,7.0516,7.0516,7.0516,7.0516,7.0516,7.0516,7.0516,7.0516,7.0516,7.0516,7.0516,7.0516,7.0516,7.0516,7.0516,7.0516,7.0516,7.0516,7.0516,7.0516,7.0516,7.0516,7.0516,7.0516,7.0516,7.0516,7.0516,7.0516,7.0516,7.0516,7.0516,7.0516,7.0516,7.0516,7.0516,7.0516,7.0516,7.0516,7.0516,7.0516,7.0516,7.0516,7.0516,7.0516,7.0516,7.0516,7.0516,7.0516,7.0516,7.0516,7.0516,7.0516,7.0516,7.0516,7.0516,7.0516,7.0516,7.0516,7.0516,7.0516,7.0516,7.0516,7.0516,7.0516,7.0516,7.0516,7.0516,7.0516,7.0516,7.0516,7.0516,7.0516,7.0516,7.0516,7.0516,7.0516,7.0516,7.0516,7.0516,7.0516,7.0516,7.0516,7.0516,7.0516,7.0516,7.0516,7.0516,7.0516,7.0516,7.0516,7.0516,7.0516,7.0516,7.0516,7.0516,7.0516,7.0516,7.0516,7.0516,7.0516,7.0516,7.0516,7.0516,7.0516,7.0516,7.0516,7.0516,7.0516,7.0516,7.0516,7.0516,7.0516,7.0516,7.0516,7.0516,7.0516,7.0516,7.0516,7.0516,7.0516,7.0516,7.0516,7.0516,7.0516,7.0516,7.0516,7.0516,7.0516,6.8042,6.7454,6.6744,6.6648,6.6558,6.6469,6.6382,6.6298,6.6207,6.6105,6.6004,6.5911,6.5810,6.5704,6.5604,6.5512,6.5438,6.5405,6.5387,6.5369,6.5356,6.5341,6.5323,6.5306,6.5288,6.5265,6.5247,6.5230,6.5214,6.5197,6.5184,6.5159,6.5138,6.5111,6.5085,6.5065,6.5043,6.5020,6.4990,6.4967,6.4947,6.4924,6.4899,6.4872,6.4847,6.4822,6.4799,6.4804,6.4807,6.4802,6.4804,6.4809,6.4804,6.4807,6.4812,6.4814,6.4814,6.4807,6.4807,6.4802,6.4794,6.4794,6.4784,6.4784,6.4787,6.4787,6.4789,6.4792,6.4792,6.4794,6.4802,6.4802,6.4792,6.4787,6.4782,6.4777,6.4772,6.4769,6.4764,6.4759,6.4759,6.4754,6.4749,6.4742,6.4737,6.4727,6.4724,6.4714,6.4709,6.4709,6.4702,6.4704,6.4717,6.4729,6.4747,6.4759,6.4762,6.4767,6.4767,6.4767,6.4762,6.4762,6.4764,6.4769,6.4769,6.4769,6.4764,6.4764,6.4769,6.4769,6.4759,6.4754,6.4742,6.4744,6.4744,6.4747,6.4747,6.4749,6.4752,6.4752,6.4754,6.4754,6.4757,6.4757,6.4759,6.4759,6.4762,6.4757,6.4754,6.4747,6.4737,6.4732,6.4729,6.4737,6.4752,6.4762,6.4767,6.4782,6.4787,6.4802,6.4812,6.4817,6.4827,6.4842,6.4849,6.4867,6.4872,6.4889,6.4897,6.4909,6.4924,6.4937,6.4950,6.4955,6.4972,6.4985,6.5000,6.5010,6.5028,6.5043,6.5058,6.5070,6.5085,6.5096,6.5108,6.5128,6.5156,6.5176,6.5194,6.5217,6.5245,6.5265,6.5283,6.5306,6.5326,6.5349,6.5372,6.5392,6.5415,6.5443,6.5463,6.5494,6.5545,6.5591,6.5645,6.5691,6.5751,6.5805,6.5854,6.5913,6.5967,6.6017,6.6077,6.6131,6.6186,6.6241,6.6293,6.6348,6.6411,6.6464,6.6524,6.6582,6.6635,6.6698,6.6754,6.6813,6.6871,6.6927,6.6980,6.7095,6.7394,6.7696,6.8008,6.8368,6.8721,7.0516,7.0516,7.0516,7.0516,7.0516,7.0516,7.0516,7.0516,7.0516,7.0516,7.0516,7.0516,7.0516,7.0516,7.0516,7.0516,7.0516,7.0516,7.0516,7.0516,7.0516,7.0516,7.0516,7.0516,7.0516,7.0516,7.0516,7.0516,7.0516,7.0516,7.0516,7.0516,7.0516,7.0516,7.0516,7.0516,7.0516,7.0516,7.0516,7.0516,7.0516,7.0516,7.0516,7.0516,7.0516,7.0516,7.0516,7.0516,7.0516,7.0516,7.0516,7.0516,7.0516,7.0516,7.0516,7.0516,7.0516,7.0516,7.0516,7.0516,7.0516,7.0516,7.0516,7.0516,7.0516,7.0516,7.0516,7.0516,7.0516,7.0516,7.0516,7.0516,7.0516
7.0462,7.0462,7.0462,7.0462,7.0462,7.0462,7.0462,7.0462,7.0462,7.0462,7.0462,7.0462,7.0462,7.0462,7.0462,7.0462,7.0462,7.0462,7.0462,7.0462,7.0462,7.0462,7.0462,7.0462,7.0462,7.0462,7.0462,7.0462,7.0462,7.0462,7.0462,7.0462,7.0462,7.0462,7.0462,7.0462,7.0462,7.0462,7.0462,7.0462,7.0462,7.0462,7.0462,7.0462,7.0462,7.0462,7.0462,7.0462,7.0462,7.0462,7.0462,7.0462,7.0462,7.0462,7.0462,7.0462,7.0462,7.0462,7.0462,7.0462,7.0462,7.0462,7.0462,7.0462,7.0462,7.0462,7.0462,7.0462,7.0462,7.0462,7.0462,7.0462,7.0462,7.0462,7.0462,7.0462,7.0462,7.0462,7.0462,7.0462,7.0462,7.0462,7.0462,7.0462,7.0462,7.0462,7.0462,7.0462,7.0462,7.0462,7.0462,7.0462,7.0462,7.0462,7.0462,7.0462,7.0462,7.0462,7.0462,7.0462,7.0462,7.0462,7.0462,7.0462,7.0462,7.0462,7.0462,7.0462,7.0462,7.0462,7.0462,7.0462,7.0462,7.0462,7.0462,7.0462,7.0462,7.0462,7.0462,7.0462,7.0462,7.0462,7.0462,7.0462,7.0462,7.0462,7.0462,7.0462,7.0462,7.0462,7.0462,7.0462,7.0462,7.0462,7.0462,7.0462,7.0462,7.0462,7.0462,6.7671,6.6927,6.6648,6.6564,6.6471,6.6387,6.6301,6.6212,6.6108,6.6006,6.5905,6.5805,6.5707,6.5612,6.5507,6.5423,6.5395,6.5377,6.5364,6.5341,6.5326,6.5308,6.5290,6.5273,6.5255,6.5242,6.5222,6.5204,6.5192,6.5174,6.5154,6.5123,6.5106,6.5075,6.5053,6.5033,6.5010,6.4985,6.4957,6.4932,6.4914,6.4884,6.4862,6.4837,6.4812,6.4784,6.4762,6.4762,6.4769,6.4769,6.4767,6.4767,6.4774,6.4774,6.4772,6.4772,6.4774,6.4764,6.4759,6.4754,6.4752,6.4749,6.4754,6.4757,6.4754,6.4754,6.4757,6.4764,6.4767,6.4767,6.4769,6.4764,6.4759,6.4754,6.4744,6.4747,6.4737,6.4737,6.4727,6.4727,6.4722,6.4712,6.4709,6.4699,6.4694,6.4692,6.4687,6.4677,6.4677,6.4669,6.4664,6.4659,6.4647,6.4659,6.4677,6.4677,6.4682,6.4677,6.4682,6.4677,6.4677,6.4677,6.4682,6.4684,6.4679,6.4684,6.4679,6.4684,6.4679,6.4684,6.4672,6.4672,6.4674,6.4669,6.4677,6.4677,6.4674,6.4677,6.4677,6.4684,6.4684,6.4682,6.4687,6.4689,6.4689,6.4692,6.4687,6.4687,6.4682,6.4684,6.4699,6.4704,6.4714,6.4724,6.4739,6.4744,6.4754,6.4764,6.4777,6.4782,6.4797,6.4804,6.4819,6.4832,6.4844,6.4854,6.4862,6.4874,6.4887,6.4902,6.4909,6.4922,6.4937,6.4950,6.4965,6.4977,6.4992,6.5007,6.5020,6.5035,6.5045,6.5063,6.5078,6.5088,6.5106,6.5128,6.5146,6.5169,6.5189,6.5217,6.5240,6.5260,6.5283,6.5301,6.5326,6.5349,6.5372,6.5392,6.5415,6.5443,6.5499,6.5545,6.5599,6.5650,6.5697,6.5751,6.5810,6.5859,6.5918,6.5967,6.6027,6.6077,6.6131,6.6183,6.6238,6.6296,6.6358,6.6408,6.6471,6.6524,6.6585,6.6638,6.6696,6.6759,6.6810,6.6874,6.6927,6.6988,6.7171,6.7470,6.7775,6.8083,6.8460,7.0462,7.0462,7.0462,7.0462,7.0462,7.0462,7.0462,7.0462,7.0462,7.0462,7.0462,7.0462,7.0462,7.0462,7.0462,7.0462,7.0462,7.0462,7.0462,7.0462,7.0462,7.0462,7.0462,7.0462,7.0462,7.0462,7.0462,7.0462,7.0462,7.0462,7.0462,7.0462,7.0462,7.0462,7.0462,7.0462,7.0462,7.0462,7.0462,7.0462,7.0462,7.0462,7.0462,7.0462,7.0462,7.0462,7.0462,7.0462,7.0462,7.0462,7.0462,7.0462,7.0462,7.0462,7.0462,7.0462,7.0462,7.0462,7.0462,7.0462,7.0462,7.0462,7.0462,7.0462,7.0462,7.0462,7.0462,7.0462,7.0462,7.0462,7.0462,7.0462,7.0462,7.0462
7.0406,7.0406,7.0406,7.0406,7.0406,7.0406,7.0406,7.0406,7.0406,7.0406,7.0406,7.0406,7.0406,7.0406,7.0406,7.0406,7.0406,7.0406,7.0406,7.0406,7.0406,7.0406,7.0406,7.0406,7.0406,7.0406,7.0406,7.0406,7.0406,7.0406,7.0406,7.0406,7.0406,7.0406,7.0406,7.0406,7.0406,7.0406,7.0406,7.0406,7.0406,7.0406,7.0406,7.0406,7.0406,7.0406,7.0406,7.0406,7.0406,7.0406,7.0406,7.0406,7.0406,7.0406,7.0406,7.0406,7.0406,7.0406,7.0406,7.0406,7.0406,7.0406,7.0406,7.0406,7.0406,7.0406,7.0406,7.0406,7.0406,7.0406,7.0406,7.0406,7.0406,7.0406,7.0406,7.0406,7.0406,7.0406,7.0406,7.0406,7.0406,7.0406,7.0406,7.0406,7.0406,7.0406,7.0406,7.0406,7.0406,7.0406,7.0406,7.0406,7.0406,7.0406,7.0406,7.0406,7.0406,7.0406,7.0406,7.0406,7.0406,7.0406,7.0406,7.0406,7.0406,7.0406,7.0406,7.0406,7.0406,7.0406,7.0406,7.0406,7.0406,7.0406,7.0406,7.0406,7.0406,7.0406,7.0406,7.0406,7.0406,7.0406,7.0406,7.0406,7.0406,7.0406,7.0406,7.0406,7.0406,7.0406,7.0406,7.0406,7.0406,7.0406,7.0406,7.0406,7.0406,7.0406,7.0406,6.7879,6.7257,6.6653,6.6564,6.6471,6.6385,6.6296,6.6215,6.6108,6.6012,6.5908,6.5807,6.5707,6.5607,6.5515,6.5443,6.5395,6.5372,6.5349,6.5339,6.5321,6.5298,6.5280,6.5268,6.5250,6.5230,6.5217,6.5194,6.5176,6.5164,6.5138,6.5118,6.5091,6.5070,6.5043,6.5017,6.4995,6.4970,6.4952,6.4927,6.4904,6.4874,6.4852,6.4834,6.4804,6.4777,6.4754,6.4729,6.4732,6.4727,6.4734,6.4729,6.4732,6.4732,6.4737,6.4739,6.4729,6.4727,6.4722,6.4717,6.4712,6.4719,6.4717,6.4722,6.4719,6.4722,6.4729,6.4724,6.4727,6.4734,6.4734,6.4727,6.4727,6.4717,6.4714,6.4714,6.4709,6.4699,6.4694,6.4689,6.4684,6.4679,6.4672,6.4667,6.4662,6.4657,6.4654,6.4645,6.4645,6.4632,6.4632,6.4622,6.4615,6.4610,6.4610,6.4605,6.4605,6.4605,6.4605,6.4605,6.4605,6.4602,6.4602,6.4602,6.4602,6.4602,6.4602,6.4602,6.4602,6.4600,6.4605,6.4602,6.4605,6.4612,6.4615,6.4615,6.4617,6.4615,6.4617,6.4625,6.4627,6.4627,6.4625,6.4632,6.4630,6.4632,6.4635,6.4647,6.4652,6.4667,6.4677,6.4687,6.4692,6.4707,6.4714,6.4724,6.4734,6.4739,6.4749,6.4759,6.4772,6.4782,6.4799,6.4809,6.4817,6.4827,6.4839,6.4852,6.4869,6.4879,6.4887,6.4904,6.4909,6.4922,6.4942,6.4957,6.4965,6.4985,6.5000,6.5012,6.5028,6.5038,6.5055,6.5070,6.5080,6.5098,6.5118,6.5141,6.5164,6.5189,6.5207,6.5235,6.5255,6.5273,6.5301,6.5321,6.5344,6.5367,6.5397,6.5448,6.5499,6.5548,6.5604,6.5650,6.5707,6.5761,6.5815,6.5869,6.5918,6.5973,6.6030,6.6079,6.6134,6.6188,6.6243,6.6298,6.6356,6.6419,6.6469,6.6527,6.6585,6.6646,6.6698,6.6757,6.6815,6.6871,6.6930,6.7047,6.7241,6.7538,6.7844,6.8169,6.8550,7.0406,7.0406,7.0406,7.0406,7.0406,7.0406,7.0406,7.0406,7.0406,7.0406,7.0406,7.0406,7.0406,7.0406,7.0406,7.0406,7.0406,7.0406,7.0406,7.0406,7.0406,7.0406,7.0406,7.0406,7.0406,7.0406,7.0406,7.0406,7.0406,7.0406,7.0406,7.0406,7.0406,7.0406,7.0406,7.0406,7.0406,7.0406,7.0406,7.0406,7.0406,7.0406,7.0406,7.0406,7.0406,7.0406,7.0406,7.0406,7.0406,7.0406,7.0406,7.0406,7.0406,7.0406,7.0406,7.0406,7.0406,7.0406,7.0406,7.0406,7.0406,7.0406,7.0406,7.0406,7.0406,7.0406,7.0406,7.0406,7.0406,7.0406,7.0406,7.0406,7.0406,7.0406
7.0344,7.0344,7.0344,7.0344,7.0344,7.0344,7.0344,7.0344,7.0344,7.0344,7.0344,7.0344,7.0344,7.0344,7.0344,7.0344,7.0344,7.0344,7.0344,7.0344,7.0344,7.0344,7.0344,7.0344,7.0344,7.0344,7.0344,7.0344,7.0344,7.0344,7.0344,7.0344,7.0344,7.0344,7.0344,7.0344,7.0344,7.0344,7.0344,7.0344,7.0344,7.0344,7.0344,7.0344,7.0344,7.0344,7.0344,7.0344,7.0344,7.0344,7.0344,7.0344,7.0344,7.0344,7.0344,7.0344,7.0344,7.0344,7.0344,7.0344,7.0344,7.0344,7.0344,7.0344,7.0344,7.0344,7.0344,7.0344,7.0344,7.0344,7.0344,7.0344,7.0344,7.0344,7.0344,7.0344,7.0344,7.0344,7.0344,7.0344,7.0344,7.0344,7.0344,7.0344,7.0344,7.0344,7.0344,7.0344,7.0344,7.0344,7.0344,7.0344,7.0344,7.0344,7.0344,7.0344,7.0344,7.0344,7.0344,7.0344,7.0344,7.0344,7.0344,7.0344,7.0344,7.0344,7.0344,7.0344,7.0344,7.0344,7.0344,7.0344,7.0344,7.0344,7.0344,7.0344,7.0344,7.0344,7.0344,7.0344,7.0344,7.0344,7.0344,7.0344,7.0344,7.0344,7.0344,7.0344,7.0344,7.0344,7.0344,7.0344,7.0344,7.0344,7.0344,7.0344,7.0344,7.0344,7.0344,6.8091,6.7508,6.6656,6.6566,6.6477,6.6390,6.6303,6.6215,6.6110,6.6009,6.5908,6.5807,6.5715,6.5614,6.5522,6.5471,6.5418,6.5367,6.5341,6.5329,6.5306,6.5288,6.5270,6.5257,6.5242,6.5224,6.5202,6.5189,6.5171,6.5149,6.5128,6.5111,6.5085,6.5058,6.5033,6.5015,6.4990,6.4967,6.4942,6.4919,6.4889,6.4872,6.4847,6.4819,6.4794,6.4767,6.4739,6.4717,6.4689,6.4689,6.4692,6.4692,6.4692,6.4699,6.4694,6.4697,6.4697,6.4687,6.4689,6.4679,6.4679,6.4684,6.4682,6.4689,6.4687,6.4692,6.4689,6.4697,6.4692,6.4699,6.4697,6.4694,6.4689,6.4687,6.4682,6.4677,6.4677,6.4672,6.4667,6.4657,6.4652,6.4652,6.4640,6.4640,6.4630,6.4630,6.4617,6.4612,6.4607,6.4600,6.4595,6.4595,6.4587,6.4585,6.4580,6.4585,6.4585,6.4580,6.4580,6.4580,6.4580,6.4580,6.4580,6.4582,6.4577,6.4577,6.4582,6.4577,6.4577,6.4582,6.4582,6.4582,6.4580,6.4587,6.4585,6.4587,6.4595,6.4595,6.4592,6.4595,6.4602,6.4605,6.4602,6.4602,6.4610,6.4610,6.4612,6.4620,6.4630,6.4645,6.4650,6.4662,6.4672,6.4682,6.4692,6.4702,6.4707,6.4717,6.4727,6.4737,6.4754,6.4759,6.4772,6.4782,6.4799,6.4809,6.4822,6.4829,6.4842,6.4857,6.4869,6.4877,6.4892,6.4902,6.4914,6.4934,6.4950,6.4962,6.4977,6.4987,6.5005,6.5015,6.5030,6.5048,6.5063,6.5073,6.5093,6.5118,6.5136,6.5159,6.5179,6.5202,6.5224,6.5245,6.5268,6.5296,6.5311,6.5351,6.5402,6.5451,6.5502,6.5558,6.5609,6.5655,6.5707,6.5761,6.5815,6.5874,6.5926,6.5980,6.6030,6.6084,6.6144,6.6191,6.6251,6.6303,6.6364,6.6421,6.6479,6.6529,6.6593,6.6651,6.6701,6.6759,6.6818,6.6879,6.7002,6.7122,6.7308,6.7617,6.7920,6.8263,7.0344,7.0344,7.0344,7.0344,7.0344,7.0344,7.0344,7.0344,7.0344,7.0344,7.0344,7.0344,7.0344,7.0344,7.0344,7.0344,7.0344,7.0344,7.0344,7.0344,7.0344,7.0344,7.0344,7.0344,7.0344,7.0344,7.0344,7.0344,7.0344,7.0344,7.0344,7.0344,7.0344,7.0344,7.0344,7.0344,7.0344,7.0344,7.0344,7.0344,7.0344,7.0344,7.0344,7.0344,7.0344,7.0344,7.0344,7.0344,7.0344,7.0344,7.0344,7.0344,7.0344,7.0344,7.0344,7.0344,7.0344,7.0344,7.0344,7.0344,7.0344,7.0344,7.0344,7.0344,7.0344,7.0344,7.0344,7.0344,7.0344,7.0344,7.0344,7.0344,7.0344,7.0344,7.0344
7.0294,7.0294,7.0294,7.0294,7.0294,7.0294,7.0294,7.0294,7.0294,7.0294,7.0294,7.0294,7.0294,7.0294,7.0294,7.0294,7.0294,7.0294,7.0294,7.0294,7.0294,7.0294,7.0294,7.0294,7.0294,7.0294,7.0294,7.0294,7.0294,7.0294,7.0294,7.0294,7.0294,7.0294,7.0294,7.0294,7.0294,7.0294,7.0294,7.0294,7.0294,7.0294,7.0294,7.0294,7.0294,7.0294,7.0294,7.0294,7.0294,7.0294,7.0294,7.0294,7.0294,7.0294,7.0294,7.0294,7.0294,7.0294,7.0294,7.0294,7.0294,7.0294,7.0294,7.0294,7.0294,7.0294,7.0294,7.0294,7.0294,7.0294,7.0294,7.0294,7.0294,7.0294,7.0294,7.0294,7.0294,7.0294,7.0294,7.0294,7.0294,7.0294,7.0294,7.0294,7.0294,7.0294,7.0294,7.0294,7.0294,7.0294,7.0294,7.0294,7.0294,7.0294,7.0294,7.0294,7.0294,7.0294,7.0294,7.0294,7.0294,7.0294,7.0294,7.0294,7.0294,7.0294,7.0294,7.0294,7.0294,7.0294,7.0294,7.0294,7.0294,7.0294,7.0294,7.0294,7.0294,7.0294,7.0294,7.0294,7.0294,7.0294,7.0294,7.0294,7.0294,7.0294,7.0294,7.0294,7.0294,7.0294,7.0294,7.0294,7.0294,7.0294,7.0294,7.0294,7.0294,7.0294,7.0294,7.0294,6.7720,6.6970,6.6566,6.6479,6.6387,6.6298,6.6212,6.6116,6.6009,6.5911,6.5815,6.5709,6.5609,6.5550,6.5499,6.5448,6.5390,6.5334,6.5313,6.5301,6.5278,6.5265,6.5250,6.5227,6.5214,6.5197,6.5179,6.5156,6.5141,6.5118,6.5101,6.5070,6.5053,6.5028,6.5005,6.4980,6.4952,6.4927,6.4909,6.4879,6.4857,6.4839,6.4814,6.4784,6.4757,6.4729,6.4707,6.4679,6.4652,6.4652,6.4654,6.4659,6.4662,6.4662,6.4662,6.4659,6.4654,6.4650,6.4645,6.4645,6.4652,6.4650,6.4650,6.4657,6.4654,6.4659,6.4657,6.4659,6.4667,6.4662,6.4667,6.4659,6.4659,6.4650,6.4650,6.4640,6.4640,6.4630,6.4625,6.4625,6.4620,6.4612,6.4607,6.4602,6.4597,6.4590,6.4580,6.4575,6.4567,6.4563,6.4563,6.4555,6.4558,6.4553,6.4560,6.4555,6.4560,6.4560,6.4560,6.4560,6.4560,6.4555,6.4560,6.4560,6.4555,6.4558,6.4553,6.4553,6.4553,6.4553,6.4555,6.4563,6.4558,6.4565,6.4563,6.4570,6.4572,6.4575,6.4575,6.4572,6.4580,6.4582,6.4580,6.4582,6.4592,6.4595,6.4600,6.4610,6.4615,6.4625,6.4640,6.4645,6.4659,6.4664,6.4674,6.4684,6.4699,6.4709,6.4719,6.4727,6.4737,6.4754,6.4759,6.4772,6.4789,6.4794,6.4812,6.4819,6.4829,6.4847,6.4854,6.4869,6.4879,6.4899,6.4909,6.4927,6.4942,6.4952,6.4965,6.4980,6.4995,6.5012,6.5022,6.5043,6.5055,6.5070,6.5088,6.5108,6.5136,6.5154,6.5179,6.5197,6.5219,6.5240,6.5268,6.5311,6.5356,6.5405,6.5461,6.5512,6.5558,6.5612,6.5658,6.5712,6.5771,6.5823,6.5877,6.5926,6.5986,6.6040,6.6087,6.6142,6.6194,6.6249,6.6306,6.6366,6.6424,6.6482,6.6535,6.6595,6.6648,6.6712,6.6767,6.6831,6.6948,6.7074,6.7198,6.7381,6.7688,6.7995,6.8352,7.0294,7.0294,7.0294,7.0294,7.0294,7.0294,7.0294,7.0294,7.0294,7.0294,7.0294,7.0294,7.0294,7.0294,7.0294,7.0294,7.0294,7.0294,7.0294,7.0294,7.0294,7.0294,7.0294,7.0294,7.0294,7.0294,7.0294,7.0294,7.0294,7.0294,7.0294,7.0294,7.0294,7.0294,7.0294,7.0294,7.0294,7.0294,7.0294,7.0294,7.0294,7.0294,7.0294,7.0294,7.0294,7.0294,7.0294,7.0294,7.0294,7.0294,7.0294,7.0294,7.0294,7.0294,7.0294,7.0294,7.0294,7.0294,7.0294,7.0294,7.0294,7.0294,7.0294,7.0294,7.0294,7.0294,7.0294,7.0294,7.0294,7.0294,7.0294,7.0294,7.0294,7.0294,7.0294
7.0235,7.0235,7.0235,7.0235,7.0235,7.0235,7.0235,7.0235,7.0235,7.0235,7.0235,7.0235,7.0235,7.0235,7.0235,7.0235,7.0235,7.0235,7.0235,7.0235,7.0235,7.0235,7.0235,7.0235,7.0235,7.0235,7.0235,7.0235,7.0235,7.0235,7.0235,7.0235,7.0235,7.0235,7.0235,7.0235,7.0235,7.0235,7.0235,7.0235,7.0235,7.0235,7.0235,7.0235,7.0235,7.0235,7.0235,7.0235,7.0235,7.0235,7.0235,7.0235,7.0235,7.0235,7.0235,7.0235,7.0235,7.0235,7.0235,7.0235,7.0235,7.0235,7.0235,7.0235,7.0235,7.0235,7.0235,7.0235,7.0235,7.0235,7.0235,7.0235,7.0235,7.0235,7.0235,7.0235,7.0235,7.0235,7.0235,7.0235,7.0235,7.0235,7.0235,7.0235,7.0235,7.0235,7.0235,7.0235,7.0235,7.0235,7.0235,7.0235,7.0235,7.0235,7.0235,7.0235,7.0235,7.0235,7.0235,7.0235,7.0235,7.0235,7.0235,7.0235,7.0235,7.0235,7.0235,7.0235,7.0235,7.0235,7.0235,7.0235,7.0235,7.0235,7.0235,7.0235,7.0235,7.0235,7.0235,7.0235,7.0235,7.0235,7.0235,7.0235,7.0235,7.0235,7.0235,7.0235,7.0235,7.0235,7.0235,7.0235,7.0235,7.0235,7.0235,7.0235,7.0235,7.0235,7.0235,7.0235,6.7923,6.7297,6.6569,6.6479,6.6393,6.6306,6.6212,6.6118,6.6012,6.5916,6.5815,6.5712,6.5632,6.5576,6.5530,6.5479,6.5423,6.5362,6.5311,6.5285,6.5270,6.5257,6.5235,6.5217,6.5204,6.5181,6.5169,6.5149,6.5131,6.5108,6.5091,6.5060,6.5043,6.5017,6.4995,6.4970,6.4942,6.4917,6.4894,6.4872,6.4852,6.4824,6.4802,6.4779,6.4747,6.4719,6.4694,6.4672,6.4645,6.4620,6.4617,6.4622,6.4625,6.4625,6.4620,6.4615,6.4617,6.4607,6.4610,6.4612,6.4617,6.4620,6.4622,6.4620,6.4620,6.4627,6.4630,6.4625,6.4627,6.4630,6.4635,6.4632,6.4627,6.4617,6.4617,6.4612,6.4607,6.4605,6.4592,6.4587,6.4582,6.4582,6.4570,6.4565,6.4560,6.4558,6.4548,6.4543,6.4540,6.4535,6.4528,6.4533,6.4528,6.4533,6.4533,6.4533,6.4530,6.4535,6.4533,6.4535,6.4535,6.4535,6.4535,6.4530,6.4535,6.4530,6.4530,6.4528,6.4528,6.4528,6.4535,6.4533,6.4540,6.4535,6.4543,6.4540,6.4548,6.4550,6.4553,6.4548,6.4550,6.4560,6.4558,6.4567,6.4570,6.4575,6.4572,6.4587,6.4597,6.4602,6.4617,6.4622,6.4637,6.4642,6.4652,6.4662,6.4672,6.4682,6.4692,6.4704,6.4719,6.4732,6.4737,6.4754,6.4762,6.4772,6.4789,6.4797,6.4807,6.4824,6.4837,6.4844,6.4859,6.4877,6.4887,6.4907,6.4919,6.4929,6.4950,6.4962,6.4977,6.4987,6.5000,6.5020,6.5035,6.5043,6.5060,6.5088,6.5108,6.5126,6.5149,6.5174,6.5197,6.5219,6.5260,6.5308,6.5364,6.5415,6.5461,6.5515,6.5566,6.5612,6.5663,6.5720,6.5774,6.5828,6.5882,6.5936,6.5991,6.6043,6.6097,6.6149,6.6196,6.6256,6.6309,6.6372,6.6427,6.6479,6.6543,6.6595,6.6656,6.6714,6.6786,6.6900,6.7023,6.7144,6.7278,6.7454,6.7756,6.8066,6.8444,7.0235,7.0235,7.0235,7.0235,7.0235,7.0235,7.0235,7.0235,7.0235,7.0235,7.0235,7.0235,7.0235,7.0235,7.0235,7.0235,7.0235,7.0235,7.0235,7.0235,7.0235,7.0235,7.0235,7.0235,7.0235,7.0235,7.0235,7.0235,7.0235,7.0235,7.0235,7.0235,7.0235,7.0235,7.0235,7.0235,7.0235,7.0235,7.0235,7.0235,7.0235,7.0235,7.0235,7.0235,7.0235,7.0235,7.0235,7.0235,7.0235,7.0235,7.0235,7.0235,7.0235,7.0235,7.0235,7.0235,7.0235,7.0235,7.0235,7.0235,7.0235,7.0235,7.0235,7.0235,7.0235,7.0235,7.0235,7.0235,7.0235,7.0235,7.0235,7.0235,7.0235,7.0235,7.0235
7.0186,7.0186,7.0186,7.0186,7.0186,7.0186,7.0186,7.0186,7.0186,7.0186,7.0186,7.0186,7.0186,7.0186,7.0186,7.0186,7.0186,7.0186,7.0186,7.0186,7.0186,7.0186,7.0186,7.0186,7.0186,7.0186,7.0186,7.0186,7.0186,7.0186,7.0186,7.0186,7.0186,7.0186,7.0186,7.0186,7.0186,7.0186,7.0186,7.0186,7.0186,7.0186,7.0186,7.0186,7.0186,7.0186,7.0186,7.0186,7.0186,7.0186,7.0186,7.0186,7.0186,7.0186,7.0186,7.0186,7.0186,7.0186,7.0186,7.0186,7.0186,7.0186,7.0186,7.0186,7.0186,7.0186,7.0186,7.0186,7.0186,7.0186,7.0186,7.0186,7.0186,7.0186,7.0186,7.0186,7.0186,7.0186,7.0186,7.0186,7.0186,7.0186,7.0186,7.0186,7.0186,7.0186,7.0186,7.0186,7.0186,7.0186,7.0186,7.0186,7.0186,7.0186,7.0186,7.0186,7.0186,7.0186,7.0186,7.0186,7.0186,7.0186,7.0186,7.0186,7.0186,7.0186,7.0186,7.0186,7.0186,7.0186,7.0186,7.0186,7.0186,7.0186,7.0186,7.0186,7.0186,7.0186,7.0186,7.0186,7.0186,7.0186,7.0186,7.0186,7.0186,7.0186,7.0186,7.0186,7.0186,7.0186,7.0186,7.0186,7.0186,7.0186,7.0186,7.0186,7.0186,7.0186,7.0186,7.0186,7.0186,6.7568,6.6783,6.6482,6.6393,6.6301,6.6215,6.6118,6.6012,6.5913,6.5818,6.5712,6.5661,6.5609,6.5553,6.5502,6.5453,6.5395,6.5334,6.5278,6.5265,6.5247,6.5224,6.5212,6.5189,6.5174,6.5161,6.5138,6.5121,6.5106,6.5080,6.5058,6.5033,6.5010,6.4985,6.4962,6.4937,6.4909,6.4884,6.4867,6.4844,6.4814,6.4792,6.4772,6.4739,6.4712,6.4684,6.4657,6.4630,6.4602,6.4582,6.4585,6.4580,6.4582,6.4582,6.4582,6.4572,6.4580,6.4575,6.4577,6.4585,6.4582,6.4582,6.4585,6.4587,6.4592,6.4590,6.4592,6.4597,6.4600,6.4602,6.4600,6.4595,6.4585,6.4585,6.4575,6.4572,6.4572,6.4560,6.4560,6.4550,6.4545,6.4538,6.4533,6.4528,6.4520,6.4515,6.4510,6.4510,6.4508,6.4503,6.4505,6.4501,6.4505,6.4508,6.4503,6.4508,6.4510,6.4505,6.4510,6.4508,6.4508,6.4505,6.4505,6.4505,6.4510,6.4510,6.4510,6.4510,6.4508,6.4505,6.4513,6.4515,6.4513,6.4520,6.4520,6.4518,6.4520,6.4528,6.4525,6.4528,6.4538,6.4538,6.4545,6.4550,6.4548,6.4558,6.4560,6.4570,6.4580,6.4595,6.4600,6.4615,6.4620,6.4635,6.4640,6.4650,6.4659,6.4669,6.4687,6.4692,6.4704,6.4719,6.4727,6.4744,6.4754,6.4767,6.4779,6.4784,6.4802,6.4809,6.4822,6.4837,6.4852,6.4869,6.4884,6.4894,6.4907,6.4927,6.4942,6.4955,6.4970,6.4980,6.4997,6.5007,6.5022,6.5040,6.5055,6.5078,6.5103,6.5126,6.5149,6.5169,6.5217,6.5263,6.5313,6.5369,6.5420,6.5469,6.5520,6.5566,6.5617,6.5671,6.5720,6.5779,6.5828,6.5887,6.5936,6.5988,6.6045,6.6100,6.6152,6.6202,6.6256,6.6311,6.6369,6.6432,6.6487,6.6545,6.6598,6.6659,6.6738,6.6852,6.6970,6.7093,6.7224,6.7348,6.7530,6.7835,6.8155,7.0186,7.0186,7.0186,7.0186,7.0186,7.0186,7.0186,7.0186,7.0186,7.0186,7.0186,7.0186,7.0186,7.0186,7.0186,7.0186,7.0186,7.0186,7.0186,7.0186,7.0186,7.0186,7.0186,7.0186,7.0186,7.0186,7.0186,7.0186,7.0186,7.0186,7.0186,7.0186,7.0186,7.0186,7.0186,7.0186,7.0186,7.0186,7.0186,7.0186,7.0186,7.0186,7.0186,7.0186,7.0186,7.0186,7.0186,7.0186,7.0186,7.0186,7.0186,7.0186,7.0186,7.0186,7.0186,7.0186,7.0186,7.0186,7.0186,7.0186,7.0186,7.0186,7.0186,7.0186,7.0186,7.0186,7.0186,7.0186,7.0186,7.0186,7.0186,7.0186,7.0186,7.0186,7.0186,7.0186
7.0130,7.0130,7.0130,7.0130,7.0130,7.0130,7.0130,7.0130,7.0130,7.0130,7.0130,7.0130,7.0130,7.0130,7.0130,7.0130,7.0130,7.0130,7.0130,7.0130,7.0130,7.0130,7.0130,7.0130,7.0130,7.0130,7.0130,7.0130,7.0130,7.0130,7.0130,7.0130,7.0130,7.0130,7.0130,7.0130,7.0130,7.0130,7.0130,7.0130,7.0130,7.0130,7.0130,7.0130,7.0130,7.0130,7.0130,7.0130,7.0130,7.0130,7.0130,7.0130,7.0130,7.0130,7.0130,7.0130,7.0130,7.0130,7.0130,7.0130,7.0130,7.0130,7.0130,7.0130,7.0130,7.0130,7.0130,7.0130,7.0130,7.0130,7.0130,7.0130,7.0130,7.0130,7.0130,7.0130,7.0130,7.0130,7.0130,7.0130,7.0130,7.0130,7.0130,7.0130,7.0130,7.0130,7.0130,7.0130,7.0130,7.0130,7.0130,7.0130,7.0130,7.0130,7.0130,7.0130,7.0130,7.0130,7.0130,7.0130,7.0130,7.0130,7.0130,7.0130,7.0130,7.0130,7.0130,7.0130,7.0130,7.0130,7.0130,7.0130,7.0130,7.0130,7.0130,7.0130,7.0130,7.0130,7.0130,7.0130,7.0130,7.0130,7.0130,7.0130,7.0130,7.0130,7.0130,7.0130,7.0130,7.0130,7.0130,7.0130,7.0130,7.0130,7.0130,7.0130,7.0130,7.0130,7.0130,7.0130,7.0130,6.7786,6.7128,6.6477,6.6390,6.6303,6.6215,6.6121,6.6019,6.5918,6.5818,6.5733,6.5686,6.5630,6.5579,6.5532,6.5481,6.5425,6.5362,6.5311,6.5255,6.5232,6.5214,6.5197,6.5187,6.5164,6.5146,6.5133,6.5111,6.5096,6.5070,6.5048,6.5017,6.5000,6.4975,6.4952,6.4922,6.4904,6.4882,6.4852,6.4834,6.4804,6.4787,6.4762,6.4734,6.4707,6.4674,6.4647,6.4620,6.4592,6.4565,6.4548,6.4543,6.4550,6.4550,6.4540,6.4543,6.4545,6.4548,6.4550,6.4545,6.4548,6.4550,6.4550,6.4553,6.4560,6.4563,6.4563,6.4565,6.4567,6.4567,6.4563,6.4563,6.4558,6.4553,6.4545,6.4545,6.4535,6.4533,6.4523,6.4518,6.4518,6.4510,6.4505,6.4496,6.4488,6.4483,6.4483,6.4478,6.4478,6.4481,6.4476,6.4478,6.4481,6.4481,6.4478,6.4478,6.4483,6.4481,6.4481,6.4486,6.4483,6.4483,6.4483,6.4481,6.4481,6.4486,6.4486,6.4486,6.4486,6.4486,6.4483,6.4486,6.4493,6.4496,6.4493,6.4493,6.4496,6.4505,6.4503,6.4513,6.4515,6.4515,6.4523,6.4523,6.4533,6.4535,6.4538,6.4548,6.4563,6.4567,6.4582,6.4587,6.4597,6.4612,6.4617,6.4627,6.4642,6.4647,6.4659,6.4672,6.4682,6.4694,6.4704,6.4717,6.4732,6.4744,6.4752,6.4762,6.4774,6.4787,6.4802,6.4814,6.4829,6.4844,6.4857,6.4877,6.4892,6.4899,6.4919,6.4929,6.4947,6.4957,6.4972,6.4990,6.5005,6.5020,6.5033,6.5055,6.5078,6.5093,6.5123,6.5171,6.5217,6.5273,6.5318,6.5369,6.5423,6.5474,6.5525,6.5576,6.5620,6.5671,6.5725,6.5784,6.5838,6.5890,6.5944,6.5996,6.6048,6.6097,6.6155,6.6204,6.6264,6.6317,6.6377,6.6435,6.6487,6.6548,6.6606,6.6685,6.6805,6.6927,6.7042,6.7168,6.7300,6.7427,6.7603,6.7907,6.8246,7.0130,7.0130,7.0130,7.0130,7.0130,7.0130,7.0130,7.0130,7.0130,7.0130,7.0130,7.0130,7.0130,7.0130,7.0130,7.0130,7.0130,7.0130,7.0130,7.0130,7.0130,7.0130,7.0130,7.0130,7.0130,7.0130,7.0130,7.0130,7.0130,7.0130,7.0130,7.0130,7.0130,7.0130,7.0130,7.0130,7.0130,7.0130,7.0130,7.0130,7.0130,7.0130,7.0130,7.0130,7.0130,7.0130,7.0130,7.0130,7.0130,7.0130,7.0130,7.0130,7.0130,7.0130,7.0130,7.0130,7.0130,7.0130,7.0130,7.0130,7.0130,7.0130,7.0130,7.0130,7.0130,7.0130,7.0130,7.0130,7.0130,7.0130,7.0130,7.0130,7.0130,7.0130,7.0130,7.0130
7.0074,7.0074,7.0074,7.0074,7.0074,7.0074,7.0074,7.0074,7.0074,7.0074,7.0074,7.0074,7.0074,7.0074,7.0074,7.0074,7.0074,7.0074,7.0074,7.0074,7.0074,7.0074,7.0074,7.0074,7.0074,7.0074,7.0074,7.0074,7.0074,7.0074,7.0074,7.0074,7.0074,7.0074,7.0074,7.0074,7.0074,7.0074,7.0074,7.0074,7.0074,7.0074,7.0074,7.0074,7.0074,7.0074,7.0074,7.0074,7.0074,7.0074,7.0074,7.0074,7.0074,7.0074,7.0074,7.0074,7.0074,7.0074,7.0074,7.0074,7.0074,7.0074,7.0074,7.0074,7.0074,7.0074,7.0074,7.0074,7.0074,7.0074,7.0074,7.0074,7.0074,7.0074,7.0074,7.0074,7.0074,7.0074,7.0074,7.0074,7.0074,7.0074,7.0074,7.0074,7.0074,7.0074,7.0074,7.0074,7.0074,7.0074,7.0074,7.0074,7.0074,7.0074,7.0074,7.0074,7.0074,7.0074,7.0074,7.0074,7.0074,7.0074,7.0074,7.0074,7.0074,7.0074,7.0074,7.0074,7.0074,7.0074,7.0074,7.0074,7.0074,7.0074,7.0074,7.0074,7.0074,7.0074,7.0074,7.0074,7.0074,7.0074,7.0074,7.0074,7.0074,7.0074,7.0074,7.0074,7.0074,7.0074,7.0074,7.0074,7.0074,7.0074,7.0074,7.0074,7.0074,7.0074,7.0074,7.0074,7.0074,6.8014,6.7462,6.6521,6.6395,6.6309,6.6222,6.6121,6.6014,6.5916,6.5815,6.5761,6.5709,6.5663,6.5612,6.5555,6.5509,6.5453,6.5392,6.5339,6.5278,6.5227,6.5204,6.5194,6.5176,6.5154,6.5141,6.5123,6.5106,6.5085,6.5060,6.5038,6.5007,6.4990,6.4960,6.4937,6.4914,6.4894,6.4867,6.4842,6.4819,6.4802,6.4772,6.4747,6.4719,6.4692,6.4669,6.4642,6.4615,6.4582,6.4555,6.4528,6.4505,6.4513,6.4505,6.4508,6.4510,6.4508,6.4508,6.4515,6.4513,6.4513,6.4520,6.4523,6.4525,6.4520,6.4523,6.4530,6.4530,6.4528,6.4530,6.4530,6.4530,6.4525,6.4518,6.4513,6.4508,6.4508,6.4498,6.4496,6.4486,6.4486,6.4478,6.4468,6.4468,6.4456,6.4458,6.4458,6.4451,6.4456,6.4451,6.4453,6.4449,6.4453,6.4456,6.4456,6.4456,6.4453,6.4458,6.4461,6.4456,6.4456,6.4458,6.4458,6.4463,6.4463,6.4461,6.4461,6.4456,6.4456,6.4458,6.4461,6.4466,6.4468,6.4471,6.4473,6.4471,6.4473,6.4483,6.4483,6.4486,6.4491,6.4498,6.4503,6.4501,6.4505,6.4513,6.4515,6.4530,6.4535,6.4545,6.4555,6.4570,6.4580,6.4590,6.4600,6.4610,6.4615,6.4627,6.4637,6.4650,6.4664,6.4672,6.4687,6.4699,6.4704,6.4717,6.4734,6.4739,6.4757,6.4764,6.4784,6.4799,6.4807,6.4822,6.4837,6.4849,6.4869,6.4884,6.4897,6.4907,6.4922,6.4934,6.4955,6.4970,6.4982,6.4997,6.5007,6.5022,6.5050,6.5073,6.5126,6.5171,6.5227,6.5273,6.5321,6.5377,6.5428,6.5479,6.5527,6.5573,6.5625,6.5681,6.5730,6.5784,6.5841,6.5890,6.5947,6.5999,6.6053,6.6105,6.6152,6.6212,6.6262,6.6324,6.6377,6.6437,6.6495,6.6548,6.6643,6.6762,6.6879,6.6999,6.7114,6.7243,6.7370,6.7500,6.7674,6.7975,6.8329,7.0074,7.0074,7.0074,7.0074,7.0074,7.0074,7.0074,7.0074,7.0074,7.0074,7.0074,7.0074,7.0074,7.0074,7.0074,7.0074,7.0074,7.0074,7.0074,7.0074,7.0074,7.0074,7.0074,7.0074,7.0074,7.0074,7.0074,7.0074,7.0074,7.0074,7.0074,7.0074,7.0074,7.0074,7.0074,7.0074,7.0074,7.0074,7.0074,7.0074,7.0074,7.0074,7.0074,7.0074,7.0074,7.0074,7.0074,7.0074,7.0074,7.0074,7.0074,7.0074,7.0074,7.0074,7.0074,7.0074,7.0074,7.0074,7.0074,7.0074,7.0074,7.0074,7.0074,7.0074,7.0074,7.0074,7.0074,7.0074,7.0074,7.0074,7.0074,7.0074,7.0074,7.0074,7.0074,7.0074
7.0016,7.0016,7.0016,7.0016,7.0016,7.0016,7.0016,7.0016,7.0016,7.0016,7.0016,7.0016,7.0016,7.0016,7.0016,7.0016,7.0016,7.0016,7.0016,7.0016,7.0016,7.0016,7.0016,7.0016,7.0016,7.0016,7.0016,7.0016,7.0016,7.0016,7.0016,7.0016,7.0016,7.0016,7.0016,7.0016,7.0016,7.0016,7.0016,7.0016,7.0016,7.0016,7.0016,7.0016,7.0016,7.0016,7.0016,7.0016,7.0016,7.0016,7.0016,7.0016,7.0016,7.0016,7.0016,7.0016,7.0016,7.0016,7.0016,7.0016,7.0016,7.0016,7.0016,7.0016,7.0016,7.0016,7.0016,7.0016,7.0016,7.0016,7.0016,7.0016,7.0016,7.0016,7.0016,7.0016,7.0016,7.0016,7.0016,7.0016,7.0016,7.0016,7.0016,7.0016,7.0016,7.0016,7.0016,7.0016,7.0016,7.0016,7.0016,7.0016,7.0016,7.0016,7.0016,7.0016,7.0016,7.0016,7.0016,7.0016,7.0016,7.0016,7.0016,7.0016,7.0016,7.0016,7.0016,7.0016,7.0016,7.0016,7.0016,7.0016,7.0016,7.0016,7.0016,7.0016,7.0016,7.0016,7.0016,7.0016,7.0016,7.0016,7.0016,7.0016,7.0016,7.0016,7.0016,7.0016,7.0016,7.0016,7.0016,7.0016,7.0016,7.0016,7.0016,7.0016,7.0016,7.0016,7.0016,7.0016,7.0016,7.0016,6.7682,6.6975,6.6398,6.6303,6.6222,6.6123,6.6017,6.5921,6.5838,6.5792,6.5735,6.5689,6.5632,6.5586,6.5535,6.5481,6.5420,6.5364,6.5306,6.5255,6.5197,6.5179,6.5161,6.5149,6.5126,6.5108,6.5093,6.5075,6.5048,6.5022,6.5005,6.4980,6.4952,6.4932,6.4909,6.4884,6.4862,6.4834,6.4809,6.4787,6.4769,6.4742,6.4712,6.4684,6.4657,6.4635,6.4607,6.4580,6.4548,6.4525,6.4498,6.4473,6.4473,6.4471,6.4471,6.4473,6.4476,6.4481,6.4478,6.4481,6.4483,6.4483,6.4491,6.4488,6.4488,6.4496,6.4493,6.4501,6.4501,6.4498,6.4498,6.4496,6.4491,6.4481,6.4481,6.4471,6.4471,6.4458,6.4453,6.4449,6.4441,6.4441,6.4431,6.4434,6.4426,6.4431,6.4426,6.4429,6.4424,6.4429,6.4424,6.4424,6.4429,6.4431,6.4431,6.4431,6.4429,6.4434,6.4434,6.4431,6.4436,6.4439,6.4439,6.4434,6.4439,6.4434,6.4439,6.4436,6.4439,6.4441,6.4444,6.4444,6.4446,6.4451,6.4449,6.4453,6.4456,6.4461,6.4468,6.4473,6.4478,6.4481,6.4486,6.4483,6.4493,6.4493,6.4503,6.4513,6.4528,6.4533,6.4548,6.4555,6.4560,6.4575,6.4582,6.4597,6.4610,6.4620,6.4627,6.4642,6.4654,6.4664,6.4677,6.4682,6.4699,6.4707,6.4722,6.4729,6.4744,6.4762,6.4772,6.4787,6.4799,6.4814,6.4829,6.4847,6.4862,6.4877,6.4889,6.4899,6.4919,6.4929,6.4942,6.4962,6.4977,6.4990,6.5005,6.5030,6.5080,6.5131,6.5181,6.5232,6.5280,6.5331,6.5377,6.5433,6.5476,6.5532,6.5584,6.5630,6.5681,6.5738,6.5787,6.5838,6.5898,6.5944,6.5996,6.6056,6.6108,6.6157,6.6215,6.6264,6.6327,6.6385,6.6440,6.6492,6.6595,6.6712,6.6826,6.6948,6.7063,6.7195,6.7316,6.7446,6.7579,6.7748,6.8050,7.0016,7.0016,7.0016,7.0016,7.0016,7.0016,7.0016,7.0016,7.0016,7.0016,7.0016,7.0016,7.0016,7.0016,7.0016,7.0016,7.0016,7.0016,7.0016,7.0016,7.0016,7.0016,7.0016,7.0016,7.0016,7.0016,7.0016,7.0016,7.0016,7.0016,7.0016,7.0016,7.0016,7.0016,7.0016,7.0016,7.0016,7.0016,7.0016,7.0016,7.0016,7.0016,7.0016,7.0016,7.0016,7.0016,7.0016,7.0016,7.0016,7.0016,7.0016,7.0016,7.0016,7.0016,7.0016,7.0016,7.0016,7.0016,7.0016,7.0016,7.0016,7.0016,7.0016,7.0016,7.0016,7.0016,7.0016,7.0016,7.0016,7.0016,7.0016,7.0016,7.0016,7.0016,7.0016,7.0016,7.0016
6.9966,6.9966,6.9966,6.9966,6.9966,6.9966,6.9966,6.9966,6.9966,6.9966,6.9966,6.9966,6.9966,6.9966,6.9966,6.9966,6.9966,6.9966,6.9966,6.9966,6.9966,6.9966,6.9966,6.9966,6.9966,6.9966,6.9966,6.9966,6.9966,6.9966,6.9966,6.9966,6.9966,6.9966,6.9966,6.9966,6.9966,6.9966,6.9966,6.9966,6.9966,6.9966,6.9966,6.9966,6.9966,6.9966,6.9966,6.9966,6.9966,6.9966,6.9966,6.9966,6.9966,6.9966,6.9966,6.9966,6.9966,6.9966,6.9966,6.9966,6.9966,6.9966,6.9966,6.9966,6.9966,6.9966,6.9966,6.9966,6.9966,6.9966,6.9966,6.9966,6.9966,6.9966,6.9966,6.9966,6.9966,6.9966,6.9966,6.9966,6.9966,6.9966,6.9966,6.9966,6.9966,6.9966,6.9966,6.9966,6.9966,6.9966,6.9966,6.9966,6.9966,6.9966,6.9966,6.9966,6.9966,6.9966,6.9966,6.9966,6.9966,6.9966,6.9966,6.9966,6.9966,6.9966,6.9966,6.9966,6.9966,6.9966,6.9966,6.9966,6.9966,6.9966,6.9966,6.9966,6.9966,6.9966,6.9966,6.9966,6.9966,6.9966,6.9966,6.9966,6.9966,6.9966,6.9966,6.9966,6.9966,6.9966,6.9966,6.9966,6.9966,6.9966,6.9966,6.9966,6.9966,6.9966,6.9966,6.9966,6.9966,6.9966,6.7912,6.7316,6.6393,6.6311,6.6222,6.6123,6.6022,6.5918,6.5867,6.5815,6.5769,6.5712,6.5666,6.5609,6.5558,6.5507,6.5453,6.5392,6.5341,6.5283,6.5222,6.5174,6.5156,6.5133,6.5118,6.5101,6.5083,6.5060,6.5038,6.5017,6.4995,6.4965,6.4947,6.4924,6.4894,6.4877,6.4847,6.4829,6.4807,6.4782,6.4754,6.4734,6.4707,6.4674,6.4652,6.4620,6.4592,6.4565,6.4538,6.4515,6.4488,6.4456,6.4444,6.4441,6.4439,6.4439,6.4446,6.4449,6.4451,6.4446,6.4453,6.4451,6.4456,6.4453,6.4461,6.4458,6.4463,6.4461,6.4468,6.4463,6.4468,6.4458,6.4453,6.4453,6.4449,6.4444,6.4434,6.4431,6.4421,6.4421,6.4409,6.4404,6.4409,6.4402,6.4407,6.4402,6.4404,6.4399,6.4402,6.4397,6.4402,6.4402,6.4399,6.4399,6.4407,6.4407,6.4407,6.4409,6.4404,6.4409,6.4411,6.4411,6.4411,6.4409,6.4414,6.4414,6.4414,6.4414,6.4414,6.4416,6.4414,6.4421,6.4419,6.4429,6.4429,6.4436,6.4441,6.4439,6.4449,6.4446,6.4451,6.4453,6.4458,6.4468,6.4471,6.4476,6.4486,6.4491,6.4498,6.4508,6.4518,6.4528,6.4543,6.4553,6.4560,6.4575,6.4587,6.4592,6.4610,6.4615,6.4627,6.4637,6.4650,6.4664,6.4677,6.4684,6.4697,6.4709,6.4727,6.4742,6.4752,6.4764,6.4779,6.4799,6.4807,6.4827,6.4837,6.4849,6.4869,6.4884,6.4897,6.4912,6.4922,6.4939,6.4950,6.4972,6.5005,6.5035,6.5085,6.5136,6.5179,6.5235,6.5280,6.5331,6.5382,6.5435,6.5481,6.5532,6.5589,6.5637,6.5689,6.5738,6.5794,6.5846,6.5900,6.5952,6.6006,6.6058,6.6110,6.6165,6.6217,6.6269,6.6330,6.6382,6.6445,6.6543,6.6659,6.6778,6.6895,6.7015,6.7141,6.7270,6.7397,6.7527,6.7655,6.7816,6.8133,6.9966,6.9966,6.9966,6.9966,6.9966,6.9966,6.9966,6.9966,6.9966,6.9966,6.9966,6.9966,6.9966,6.9966,6.9966,6.9966,6.9966,6.9966,6.9966,6.9966,6.9966,6.9966,6.9966,6.9966,6.9966,6.9966,6.9966,6.9966,6.9966,6.9966,6.9966,6.9966,6.9966,6.9966,6.9966,6.9966,6.9966,6.9966,6.9966,6.9966,6.9966,6.9966,6.9966,6.9966,6.9966,6.9966,6.9966,6.9966,6.9966,6.9966,6.9966,6.9966,6.9966,6.9966,6.9966,6.9966,6.9966,6.9966,6.9966,6.9966,6.9966,6.9966,6.9966,6.9966,6.9966,6.9966,6.9966,6.9966,6.9966,6.9966,6.9966,6.9966,6.9966,6.9966,6.9966,6.9966,6.9966
6.9911,6.9911,6.9911,6.9911,6.9911,6.9911,6.9911,6.9911,6.9911,6.9911,6.9911,6.9911,6.9911,6.9911,6.9911,6.9911,6.9911,6.9911,6.9911,6.9911,6.9911,6.9911,6.9911,6.9911,6.9911,6.9911,6.9911,6.9911,6.9911,6.9911,6.9911,6.9911,6.9911,6.9911,6.9911,6.9911,6.9911,6.9911,6.9911,6.9911,6.9911,6.9911,6.9911,6.9911,6.9911,6.9911,6.9911,6.9911,6.9911,6.9911,6.9911,6.9911,6.9911,6.9911,6.9911,6.9911,6.9911,6.9911,6.9911,6.9911,6.9911,6.9911,6.9911,6.9911,6.9911,6.9911,6.9911,6.9911,6.9911,6.9911,6.9911,6.9911,6.9911,6.9911,6.9911,6.9911,6.9911,6.9911,6.9911,6.9911,6.9911,6.9911,6.9911,6.9911,6.9911,6.9911,6.9911,6.9911,6.9911,6.9911,6.9911,6.9911,6.9911,6.9911,6.9911,6.9911,6.9911,6.9911,6.9911,6.9911,6.9911,6.9911,6.9911,6.9911,6.9911,6.9911,6.9911,6.9911,6.9911,6.9911,6.9911,6.9911,6.9911,6.9911,6.9911,6.9911,6.9911,6.9911,6.9911,6.9911,6.9911,6.9911,6.9911,6.9911,6.9911,6.9911,6.9911,6.9911,6.9911,6.9911,6.9911,6.9911,6.9911,6.9911,6.9911,6.9911,6.9911,6.9911,6.9911,6.9911,6.9911,6.9911,6.9911,6.7582,6.6751,6.6311,6.6225,6.6126,6.6025,6.5944,6.5898,6.5846,6.5789,6.5738,6.5691,6.5640,6.5586,6.5540,6.5479,6.5425,6.5369,6.5308,6.5250,6.5194,6.5141,6.5126,6.5113,6.5091,6.5073,6.5055,6.5033,6.5002,6.4985,6.4962,6.4937,6.4914,6.4884,6.4862,6.4839,6.4819,6.4797,6.4769,6.4749,6.4724,6.4692,6.4669,6.4642,6.4615,6.4582,6.4560,6.4528,6.4503,6.4481,6.4456,6.4441,6.4429,6.4421,6.4407,6.4409,6.4414,6.4411,6.4419,6.4419,6.4416,6.4424,6.4426,6.4421,6.4424,6.4431,6.4426,6.4434,6.4436,6.4436,6.4426,6.4421,6.4421,6.4416,6.4407,6.4402,6.4394,6.4394,6.4389,6.4379,6.4382,6.4382,6.4377,6.4379,6.4374,6.4374,6.4377,6.4372,6.4370,6.4377,6.4377,6.4377,6.4374,6.4374,6.4379,6.4377,6.4377,6.4379,6.4384,6.4384,6.4382,6.4382,6.4387,6.4389,6.4389,6.4389,6.4384,6.4392,6.4387,6.4397,6.4394,6.4399,6.4407,6.4407,6.4414,6.4419,6.4419,6.4426,6.4426,6.4434,6.4439,6.4436,6.4446,6.4446,6.4449,6.4456,6.4471,6.4476,6.4491,6.4496,6.4505,6.4520,6.4530,6.4538,6.4548,6.4560,6.4570,6.4582,6.4592,6.4605,6.4615,6.4627,6.4642,6.4654,6.4667,6.4679,6.4687,6.4707,6.4714,6.4734,6.4744,6.4757,6.4772,6.4792,6.4799,6.4819,6.4829,6.4847,6.4862,6.4877,6.4889,6.4909,6.4937,6.4957,6.4990,6.5017,6.5040,6.5091,6.5133,6.5189,6.5235,6.5285,6.5334,6.5384,6.5435,6.5492,6.5538,6.5591,6.5637,6.5689,6.5745,6.5792,6.5846,6.5903,6.5955,6.6004,6.6061,6.6113,6.6168,6.6215,6.6277,6.6330,6.6385,6.6495,6.6611,6.6736,6.6847,6.6972,6.7090,6.7216,6.7340,6.7473,6.7598,6.7731,6.7887,6.9911,6.9911,6.9911,6.9911,6.9911,6.9911,6.9911,6.9911,6.9911,6.9911,6.9911,6.9911,6.9911,6.9911,6.9911,6.9911,6.9911,6.9911,6.9911,6.9911,6.9911,6.9911,6.9911,6.9911,6.9911,6.9911,6.9911,6.9911,6.9911,6.9911,6.9911,6.9911,6.9911,6.9911,6.9911,6.9911,6.9911,6.9911,6.9911,6.9911,6.9911,6.9911,6.9911,6.9911,6.9911,6.9911,6.9911,6.9911,6.9911,6.9911,6.9911,6.9911,6.9911,6.9911,6.9911,6.9911,6.9911,6.9911,6.9911,6.9911,6.9911,6.9911,6.9911,6.9911,6.9911,6.9911,6.9911,6.9911,6.9911,6.9911,6.9911,6.9911,6.9911,6.9911,6.9911,6.9911,6.9911,6.9911
6.9850,6.9850,6.9850,6.9850,6.9850,6.9850,6.9850,6.9850,6.9850,6.9850,6.9850,6.9850,6.9850,6.9850,6.9850,6.9850,6.9850,6.9850,6.9850,6.9850,6.9850,6.9850,6.9850,6.9850,6.9850,6.9850,6.9850,6.9850,6.9850,6.9850,6.9850,6.9850,6.9850,6.9850,6.9850,6.9850,6.9850,6.9850,6.9850,6.9850,6.9850,6.9850,6.9850,6.9850,6.9850,6.9850,6.9850,6.9850,6.9850,6.9850,6.9850,6.9850,6.9850,6.9850,6.9850,6.9850,6.9850,6.9850,6.9850,6.9850,6.9850,6.9850,6.9850,6.9850,6.9850,6.9850,6.9850,6.9850,6.9850,6.9850,6.9850,6.9850,6.9850,6.9850,6.9850,6.9850,6.9850,6.9850,6.9850,6.9850,6.9850,6.9850,6.9850,6.9850,6.9850,6.9850,6.9850,6.9850,6.9850,6.9850,6.9850,6.9850,6.9850,6.9850,6.9850,6.9850,6.9850,6.9850,6.9850,6.9850,6.9850,6.9850,6.9850,6.9850,6.9850,6.9850,6.9850,6.9850,6.9850,6.9850,6.9850,6.9850,6.9850,6.9850,6.9850,6.9850,6.9850,6.9850,6.9850,6.9850,6.9850,6.9850,6.9850,6.9850,6.9850,6.9850,6.9850,6.9850,6.9850,6.9850,6.9850,6.9850,6.9850,6.9850,6.9850,6.9850,6.9850,6.9850,6.9850,6.9850,6.9850,6.9850,6.9850,6.7808,6.7157,6.6309,6.6220,6.6126,6.6030,6.5978,6.5921,6.5874,6.5818,6.5766,6.5720,6.5668,6.5617,6.5566,6.5507,6.5456,6.5392,6.5341,6.5285,6.5227,6.5166,6.5116,6.5098,6.5085,6.5068,6.5048,6.5022,6.4995,6.4970,6.4947,6.4927,6.4899,6.4877,6.4857,6.4829,6.4812,6.4782,6.4764,6.4739,6.4709,6.4682,6.4654,6.4632,6.4600,6.4577,6.4553,6.4528,6.4496,6.4471,6.4453,6.4449,6.4436,6.4419,6.4411,6.4394,6.4387,6.4377,6.4379,6.4387,6.4389,6.4384,6.4387,6.4394,6.4394,6.4397,6.4399,6.4397,6.4402,6.4404,6.4399,6.4389,6.4389,6.4379,6.4374,6.4374,6.4367,6.4357,6.4352,6.4357,6.4357,6.4350,6.4350,6.4355,6.4347,6.4352,6.4352,6.4345,6.4345,6.4350,6.4352,6.4347,6.4347,6.4355,6.4355,6.4350,6.4357,6.4352,6.4352,6.4355,6.4360,6.4362,6.4357,6.4362,6.4360,6.4360,6.4360,6.4367,6.4370,6.4374,6.4379,6.4382,6.4387,6.4384,6.4389,6.4392,6.4397,6.4404,6.4404,6.4414,6.4411,6.4416,6.4424,6.4424,6.4431,6.4439,6.4449,6.4453,6.4463,6.4478,6.4488,6.4498,6.4508,6.4515,6.4530,6.4538,6.4553,6.4560,6.4575,6.4582,6.4592,6.4610,6.4615,6.4627,6.4640,6.4652,6.4669,6.4684,6.4694,6.4707,6.4727,6.4742,6.4749,6.4769,6.4784,6.4792,6.4812,6.4827,6.4844,6.4864,6.4897,6.4917,6.4950,6.4970,6.5002,6.5030,6.5058,6.5093,6.5138,6.5189,6.5245,6.5288,6.5344,6.5390,6.5441,6.5494,6.5540,6.5596,6.5648,6.5694,6.5751,6.5797,6.5849,6.5900,6.5952,6.6006,6.6064,6.6113,6.6165,6.6222,6.6280,6.6332,6.6445,6.6564,6.6685,6.6805,6.6924,6.7042,6.7160,6.7292,6.7421,6.7543,6.7674,6.7808,6.7962,6.9850,6.9850,6.9850,6.9850,6.9850,6.9850,6.9850,6.9850,6.9850,6.9850,6.9850,6.9850,6.9850,6.9850,6.9850,6.9850,6.9850,6.9850,6.9850,6.9850,6.9850,6.9850,6.9850,6.9850,6.9850,6.9850,6.9850,6.9850,6.9850,6.9850,6.9850,6.9850,6.9850,6.9850,6.9850,6.9850,6.9850,6.9850,6.9850,6.9850,6.9850,6.9850,6.9850,6.9850,6.9850,6.9850,6.9850,6.9850,6.9850,6.9850,6.9850,6.9850,6.9850,6.9850,6.9850,6.9850,6.9850,6.9850,6.9850,6.9850,6.9850,6.9850,6.9850,6.9850,6.9850,6.9850,6.9850,6.9850,6.9850,6.9850,6.9850,6.9850,6.9850,6.9850,6.9850,6.9850,6.9850,6.9850
6.9798,6.9798,6.9798,6.9798,6.9798,6.9798,6.9798,6.9798,6.9798,6.9798,6.9798,6.9798,6.9798,6.9798,6.9798,6.9798,6.9798,6.9798,6.9798,6.9798,6.9798,6.9798,6.9798,6.9798,6.9798,6.9798,6.9798,6.9798,6.9798,6.9798,6.9798,6.9798,6.9798,6.9798,6.9798,6.9798,6.9798,6.9798,6.9798,6.9798,6.9798,6.9798,6.9798,6.9798,6.9798,6.9798,6.9798,6.9798,6.9798,6.9798,6.9798,6.9798,6.9798,6.9798,6.9798,6.9798,6.9798,6.9798,6.9798,6.9798,6.9798,6.9798,6.9798,6.9798,6.9798,6.9798,6.9798,6.9798,6.9798,6.9798,6.9798,6.9798,6.9798,6.9798,6.9798,6.9798,6.9798,6.9798,6.9798,6.9798,6.9798,6.9798,6.9798,6.9798,6.9798,6.9798,6.9798,6.9798,6.9798,6.9798,6.9798,6.9798,6.9798,6.9798,6.9798,6.9798,6.9798,6.9798,6.9798,6.9798,6.9798,6.9798,6.9798,6.9798,6.9798,6.9798,6.9798,6.9798,6.9798,6.9798,6.9798,6.9798,6.9798,6.9798,6.9798,6.9798,6.9798,6.9798,6.9798,6.9798,6.9798,6.9798,6.9798,6.9798,6.9798,6.9798,6.9798,6.9798,6.9798,6.9798,6.9798,6.9798,6.9798,6.9798,6.9798,6.9798,6.9798,6.9798,6.9798,6.9798,6.9798,6.9798,6.9798,6.9798,6.7481,6.6445,6.6228,6.6123,6.6056,6.6004,6.5947,6.5895,6.5849,6.5794,6.5743,6.5697,6.5645,6.5594,6.5540,6.5479,6.5428,6.5364,6.5313,6.5252,6.5199,6.5144,6.5093,6.5070,6.5058,6.5038,6.5012,6.4985,6.4965,6.4942,6.4919,6.4889,6.4872,6.4849,6.4824,6.4797,6.4777,6.4754,6.4727,6.4702,6.4674,6.4652,6.4620,6.4592,6.4567,6.4548,6.4520,6.4491,6.4471,6.4456,6.4446,6.4434,6.4426,6.4409,6.4397,6.4389,6.4374,6.4357,6.4347,6.4350,6.4352,6.4352,6.4355,6.4357,6.4365,6.4365,6.4367,6.4370,6.4365,6.4367,6.4362,6.4360,6.4347,6.4347,6.4342,6.4330,6.4333,6.4333,6.4328,6.4330,6.4330,6.4323,6.4323,6.4328,6.4325,6.4320,6.4325,6.4323,6.4320,6.4320,6.4325,6.4323,6.4323,6.4330,6.4330,6.4325,6.4333,6.4328,6.4333,6.4335,6.4330,6.4335,6.4337,6.4333,6.4335,6.4342,6.4340,6.4350,6.4347,6.4352,6.4355,6.4360,6.4370,6.4372,6.4372,6.4374,6.4384,6.4382,6.4387,6.4397,6.4399,6.4404,6.4402,6.4411,6.4411,6.4426,6.4431,6.4441,6.4456,6.4466,6.4476,6.4486,6.4498,6.4508,6.4515,6.4530,6.4543,6.4553,6.4565,6.4570,6.4582,6.4595,6.4610,6.4617,6.4630,6.4645,6.4657,6.4672,6.4687,6.4699,6.4714,6.4729,6.4742,6.4757,6.4772,6.4797,6.4829,6.4849,6.4882,6.4907,6.4929,6.4960,6.4987,6.5010,6.5043,6.5065,6.5096,6.5149,6.5199,6.5247,6.5293,6.5349,6.5400,6.5448,6.5494,6.5550,6.5596,6.5648,6.5699,6.5751,6.5802,6.5854,6.5905,6.5957,6.6014,6.6066,6.6116,6.6168,6.6228,6.6283,6.6398,6.6516,6.6638,6.6757,6.6874,6.6994,6.7114,6.7241,6.7367,6.7492,6.7625,6.7751,6.7885,6.8042,6.9798,6.9798,6.9798,6.9798,6.9798,6.9798,6.9798,6.9798,6.9798,6.9798,6.9798,6.9798,6.9798,6.9798,6.9798,6.9798,6.9798,6.9798,6.9798,6.9798,6.9798,6.9798,6.9798,6.9798,6.9798,6.9798,6.9798,6.9798,6.9798,6.9798,6.9798,6.9798,6.9798,6.9798,6.9798,6.9798,6.9798,6.9798,6.9798,6.9798,6.9798,6.9798,6.9798,6.9798,6.9798,6.9798,6.9798,6.9798,6.9798,6.9798,6.9798,6.9798,6.9798,6.9798,6.9798,6.9798,6.9798,6.9798,6.9798,6.9798,6.9798,6.9798,6.9798,6.9798,6.9798,6.9798,6.9798,6.9798,6.9798,6.9798,6.9798,6.9798,6.9798,6.9798,6.9798,6.9798,6.9798,6.9798
6.9743,6.9743,6.9743,6.9743,6.9743,6.9743,6.9743,6.9743,6.9743,6.9743,6.9743,6.9743,6.9743,6.9743,6.9743,6.9743,6.9743,6.9743,6.9743,6.9743,6.9743,6.9743,6.9743,6.9743,6.9743,6.9743,6.9743,6.9743,6.9743,6.9743,6.9743,6.9743,6.9743,6.9743,6.9743,6.9743,6.9743,6.9743,6.9743,6.9743,6.9743,6.9743,6.9743,6.9743,6.9743,6.9743,6.9743,6.9743,6.9743,6.9743,6.9743,6.9743,6.9743,6.9743,6.9743,6.9743,6.9743,6.9743,6.9743,6.9743,6.9743,6.9743,6.9743,6.9743,6.9743,6.9743,6.9743,6.9743,6.9743,6.9743,6.9743,6.9743,6.9743,6.9743,6.9743,6.9743,6.9743,6.9743,6.9743,6.9743,6.9743,6.9743,6.9743,6.9743,6.9743,6.9743,6.9743,6.9743,6.9743,6.9743,6.9743,6.9743,6.9743,6.9743,6.9743,6.9743,6.9743,6.9743,6.9743,6.9743,6.9743,6.9743,6.9743,6.9743,6.9743,6.9743,6.9743,6.9743,6.9743,6.9743,6.9743,6.9743,6.9743,6.9743,6.9743,6.9743,6.9743,6.9743,6.9743,6.9743,6.9743,6.9743,6.9743,6.9743,6.9743,6.9743,6.9743,6.9743,6.9743,6.9743,6.9743,6.9743,6.9743,6.9743,6.9743,6.9743,6.9743,6.9743,6.9743,6.9743,6.9743,6.9743,6.9743,6.9743,6.7701,6.6986,6.6228,6.6136,6.6079,6.6027,6.5975,6.5929,6.5877,6.5820,6.5774,6.5717,6.5666,6.5614,6.5563,6.5507,6.5456,6.5395,6.5336,6.5280,6.5224,6.5166,6.5111,6.5065,6.5050,6.5022,6.5002,6.4980,6.4957,6.4927,6.4904,6.4882,6.4857,6.4839,6.4814,6.4792,6.4764,6.4744,6.4722,6.4692,6.4664,6.4640,6.4612,6.4592,6.4567,6.4540,6.4510,6.4483,6.4468,6.4458,6.4449,6.4441,6.4429,6.4411,6.4404,6.4392,6.4377,6.4365,6.4352,6.4335,6.4328,6.4320,6.4323,6.4323,6.4325,6.4328,6.4333,6.4335,6.4337,6.4330,6.4333,6.4328,6.4320,6.4315,6.4310,6.4308,6.4303,6.4300,6.4300,6.4300,6.4303,6.4298,6.4296,6.4296,6.4300,6.4298,6.4293,6.4293,6.4298,6.4296,6.4300,6.4300,6.4298,6.4303,6.4298,6.4305,6.4305,6.4303,6.4308,6.4303,6.4310,6.4305,6.4310,6.4313,6.4313,6.4315,6.4323,6.4328,6.4333,6.4330,6.4340,6.4337,6.4342,6.4350,6.4355,6.4360,6.4357,6.4362,6.4365,6.4370,6.4372,6.4377,6.4382,6.4389,6.4394,6.4404,6.4414,6.4424,6.4434,6.4444,6.4453,6.4466,6.4476,6.4483,6.4498,6.4505,6.4515,6.4528,6.4543,6.4555,6.4565,6.4572,6.4582,6.4595,6.4612,6.4627,6.4637,6.4650,6.4669,6.4684,6.4692,6.4707,6.4737,6.4757,6.4787,6.4814,6.4839,6.4862,6.4887,6.4919,6.4939,6.4972,6.5000,6.5028,6.5055,6.5083,6.5108,6.5151,6.5202,6.5247,6.5303,6.5349,6.5397,6.5453,6.5504,6.5555,6.5599,6.5655,6.5704,6.5761,6.5807,6.5859,6.5916,6.5962,6.6019,6.6071,6.6123,6.6175,6.6241,6.6351,6.6469,6.6590,6.6704,6.6826,6.6940,6.7063,6.7187,6.7316,6.7438,6.7573,6.7696,6.7833,6.7962,6.9743,6.9743,6.9743,6.9743,6.9743,6.9743,6.9743,6.9743,6.9743,6.9743,6.9743,6.9743,6.9743,6.9743,6.9743,6.9743,6.9743,6.9743,6.9743,6.9743,6.9743,6.9743,6.9743,6.9743,6.9743,6.9743,6.9743,6.9743,6.9743,6.9743,6.9743,6.9743,6.9743,6.9743,6.9743,6.9743,6.9743,6.9743,6.9743,6.9743,6.9743,6.9743,6.9743,6.9743,6.9743,6.9743,6.9743,6.9743,6.9743,6.9743,6.9743,6.9743,6.9743,6.9743,6.9743,6.9743,6.9743,6.9743,6.9743,6.9743,6.9743,6.9743,6.9743,6.9743,6.9743,6.9743,6.9743,6.9743,6.9743,6.9743,6.9743,6.9743,6.9743,6.9743,6.9743,6.9743,6.9743,6.9743,6.9743
6.9688,6.9688,6.9688,6.9688,6.9688,6.9688,6.9688,6.9688,6.9688,6.9688,6.9688,6.9688,6.9688,6.9688,6.9688,6.9688,6.9688,6.9688,6.9688,6.9688,6.9688,6.9688,6.9688,6.9688,6.9688,6.9688,6.9688,6.9688,6.9688,6.9688,6.9688,6.9688,6.9688,6.9688,6.9688,6.9688,6.9688,6.9688,6.9688,6.9688,6.9688,6.9688,6.9688,6.9688,6.9688,6.9688,6.9688,6.9688,6.9688,6.9688,6.9688,6.9688,6.9688,6.9688,6.9688,6.9688,6.9688,6.9688,6.9688,6.9688,6.9688,6.9688,6.9688,6.9688,6.9688,6.9688,6.9688,6.9688,6.9688,6.9688,6.9688,6.9688,6.9688,6.9688,6.9688,6.9688,6.9688,6.9688,6.9688,6.9688,6.9688,6.9688,6.9688,6.9688,6.9688,6.9688,6.9688,6.9688,6.9688,6.9688,6.9688,6.9688,6.9688,6.9688,6.9688,6.9688,6.9688,6.9688,6.9688,6.9688,6.9688,6.9688,6.9688,6.9688,6.9688,6.9688,6.9688,6.9688,6.9688,6.9688,6.9688,6.9688,6.9688,6.9688,6.9688,6.9688,6.9688,6.9688,6.9688,6.9688,6.9688,6.9688,6.9688,6.9688,6.9688,6.9688,6.9688,6.9688,6.9688,6.9688,6.9688,6.9688,6.9688,6.9688,6.9688,6.9688,6.9688,6.9688,6.9688,6.9688,6.9688,6.9688,6.9688,6.9688,6.9688,6.7346,6.6230,6.6162,6.6110,6.6053,6.6001,6.5952,6.5905,6.5854,6.5797,6.5751,6.5699,6.5643,6.5591,6.5543,6.5479,6.5423,6.5372,6.5313,6.5257,6.5194,6.5144,6.5088,6.5040,6.5017,6.4995,6.4965,6.4942,6.4919,6.4899,6.4872,6.4854,6.4824,6.4802,6.4779,6.4757,6.4737,6.4714,6.4684,6.4659,6.4637,6.4612,6.4582,6.4555,6.4530,6.4503,6.4486,6.4471,6.4461,6.4451,6.4439,6.4431,6.4414,6.4407,6.4389,6.4379,6.4362,6.4355,6.4337,6.4330,6.4313,6.4305,6.4291,6.4291,6.4293,6.4300,6.4303,6.4298,6.4300,6.4300,6.4291,6.4288,6.4278,6.4278,6.4276,6.4276,6.4281,6.4278,6.4278,6.4273,6.4271,6.4276,6.4273,6.4273,6.4273,6.4266,6.4266,6.4273,6.4269,6.4276,6.4271,6.4276,6.4273,6.4278,6.4273,6.4281,6.4276,6.4276,6.4283,6.4278,6.4286,6.4283,6.4288,6.4291,6.4293,6.4296,6.4305,6.4310,6.4308,6.4313,6.4323,6.4320,6.4330,6.4333,6.4333,6.4342,6.4340,6.4345,6.4352,6.4352,6.4360,6.4365,6.4367,6.4367,6.4382,6.4392,6.4402,6.4407,6.4416,6.4426,6.4439,6.4449,6.4466,6.4471,6.4483,6.4493,6.4505,6.4515,6.4528,6.4543,6.4555,6.4560,6.4577,6.4592,6.4600,6.4615,6.4630,6.4642,6.4664,6.4694,6.4722,6.4742,6.4774,6.4794,6.4827,6.4847,6.4879,6.4899,6.4932,6.4952,6.4985,6.5012,6.5040,6.5068,6.5093,6.5121,6.5151,6.5202,6.5252,6.5301,6.5351,6.5407,6.5458,6.5509,6.5558,6.5604,6.5661,6.5712,6.5758,6.5810,6.5864,6.5921,6.5973,6.6025,6.6077,6.6129,6.6194,6.6309,6.6421,6.6537,6.6661,6.6778,6.6892,6.7010,6.7136,6.7257,6.7386,6.7514,6.7650,6.7781,6.7907,6.9688,6.9688,6.9688,6.9688,6.9688,6.9688,6.9688,6.9688,6.9688,6.9688,6.9688,6.9688,6.9688,6.9688,6.9688,6.9688,6.9688,6.9688,6.9688,6.9688,6.9688,6.9688,6.9688,6.9688,6.9688,6.9688,6.9688,6.9688,6.9688,6.9688,6.9688,6.9688,6.9688,6.9688,6.9688,6.9688,6.9688,6.9688,6.9688,6.9688,6.9688,6.9688,6.9688,6.9688,6.9688,6.9688,6.9688,6.9688,6.9688,6.9688,6.9688,6.9688,6.9688,6.9688,6.9688,6.9688,6.9688,6.9688,6.9688,6.9688,6.9688,6.9688,6.9688,6.9688,6.9688,6.9688,6.9688,6.9688,6.9688,6.9688,6.9688,6.9688,6.9688,6.9688,6.9688,6.9688,6.9688,6.9688,6.9688,6.9688
6.9638,6.9638,6.9638,6.9638,6.9638,6.9638,6.9638,6.9638,6.9638,6.9638,6.9638,6.9638,6.9638,6.9638,6.9638,6.9638,6.9638,6.9638,6.9638,6.9638,6.9638,6.9638,6.9638,6.9638,6.9638,6.9638,6.9638,6.9638,6.9638,6.9638,6.9638,6.9638,6.9638,6.9638,6.9638,6.9638,6.9638,6.9638,6.9638,6.9638,6.9638,6.9638,6.9638,6.9638,6.9638,6.9638,6.9638,6.9638,6.9638,6.9638,6.9638,6.9638,6.9638,6.9638,6.9638,6.9638,6.9638,6.9638,6.9638,6.9638,6.9638,6.9638,6.9638,6.9638,6.9638,6.9638,6.9638,6.9638,6.9638,6.9638,6.9638,6.9638,6.9638,6.9638,6.9638,6.9638,6.9638,6.9638,6.9638,6.9638,6.9638,6.9638,6.9638,6.9638,6.9638,6.9638,6.9638,6.9638,6.9638,6.9638,6.9638,6.9638,6.9638,6.9638,6.9638,6.9638,6.9638,6.9638,6.9638,6.9638,6.9638,6.9638,6.9638,6.9638,6.9638,6.9638,6.9638,6.9638,6.9638,6.9638,6.9638,6.9638,6.9638,6.9638,6.9638,6.9638,6.9638,6.9638,6.9638,6.9638,6.9638,6.9638,6.9638,6.9638,6.9638,6.9638,6.9638,6.9638,6.9638,6.9638,6.9638,6.9638,6.9638,6.9638,6.9638,6.9638,6.9638,6.9638,6.9638,6.9638,6.9638,6.9638,6.9638,6.9638,6.9638,6.7598,6.6675,6.6191,6.6134,6.6087,6.6035,6.5978,6.5926,6.5880,6.5828,6.5776,6.5720,6.5668,6.5622,6.5571,6.5509,6.5451,6.5400,6.5339,6.5285,6.5224,6.5169,6.5116,6.5055,6.5010,6.4982,6.4965,6.4939,6.4917,6.4894,6.4869,6.4847,6.4824,6.4802,6.4772,6.4749,6.4727,6.4709,6.4679,6.4652,6.4632,6.4602,6.4575,6.4550,6.4528,6.4498,6.4486,6.4471,6.4466,6.4453,6.4446,6.4434,6.4416,6.4404,6.4392,6.4379,6.4365,6.4352,6.4340,6.4333,6.4315,6.4303,6.4293,6.4276,6.4269,6.4261,6.4269,6.4271,6.4266,6.4264,6.4259,6.4259,6.4259,6.4251,6.4251,6.4249,6.4249,6.4254,6.4251,6.4251,6.4251,6.4244,6.4244,6.4244,6.4241,6.4246,6.4246,6.4241,6.4249,6.4244,6.4249,6.4246,6.4251,6.4254,6.4249,6.4254,6.4251,6.4256,6.4259,6.4256,6.4264,6.4266,6.4271,6.4273,6.4276,6.4278,6.4283,6.4288,6.4293,6.4291,6.4300,6.4300,6.4308,6.4313,6.4310,6.4315,6.4323,6.4328,6.4333,6.4335,6.4335,6.4337,6.4347,6.4350,6.4355,6.4370,6.4379,6.4384,6.4399,6.4404,6.4421,6.4426,6.4444,6.4449,6.4466,6.4471,6.4488,6.4498,6.4510,6.4520,6.4528,6.4543,6.4553,6.4565,6.4580,6.4597,6.4622,6.4650,6.4679,6.4702,6.4732,6.4754,6.4784,6.4807,6.4832,6.4859,6.4889,6.4917,6.4942,6.4970,6.4997,6.5025,6.5053,6.5083,6.5111,6.5133,6.5166,6.5207,6.5260,6.5311,6.5362,6.5412,6.5458,6.5512,6.5563,6.5609,6.5661,6.5717,6.5769,6.5815,6.5872,6.5918,6.5975,6.6030,6.6082,6.6147,6.6264,6.6374,6.6498,6.6609,6.6730,6.6850,6.6962,6.7087,6.7206,6.7340,6.7465,6.7601,6.7731,6.7863,6.9638,6.9638,6.9638,6.9638,6.9638,6.9638,6.9638,6.9638,6.9638,6.9638,6.9638,6.9638,6.9638,6.9638,6.9638,6.9638,6.9638,6.9638,6.9638,6.9638,6.9638,6.9638,6.9638,6.9638,6.9638,6.9638,6.9638,6.9638,6.9638,6.9638,6.9638,6.9638,6.9638,6.9638,6.9638,6.9638,6.9638,6.9638,6.9638,6.9638,6.9638,6.9638,6.9638,6.9638,6.9638,6.9638,6.9638,6.9638,6.9638,6.9638,6.9638,6.9638,6.9638,6.9638,6.9638,6.9638,6.9638,6.9638,6.9638,6.9638,6.9638,6.9638,6.9638,6.9638,6.9638,6.9638,6.9638,6.9638,6.9638,6.9638,6.9638,6.9638,6.9638,6.9638,6.9638,6.9638,6.9638,6.9638,6.9638,6.9638,6.9638
6.9584,6.9584,6.9584,6.9584,6.9584,6.9584,6.9584,6.9584,6.9584,6.9584,6.9584,6.9584,6.9584,6.9584,6.9584,6.9584,6.9584,6.9584,6.9584,6.9584,6.9584,6.9584,6.9584,6.9584,6.9584,6.9584,6.9584,6.9584,6.9584,6.9584,6.9584,6.9584,6.9584,6.9584,6.9584,6.9584,6.9584,6.9584,6.9584,6.9584,6.9584,6.9584,6.9584,6.9584,6.9584,6.9584,6.9584,6.9584,6.9584,6.9584,6.9584,6.9584,6.9584,6.9584,6.9584,6.9584,6.9584,6.9584,6.9584,6.9584,6.9584,6.9584,6.9584,6.9584,6.9584,6.9584,6.9584,6.9584,6.9584,6.9584,6.9584,6.9584,6.9584,6.9584,6.9584,6.9584,6.9584,6.9584,6.9584,6.9584,6.9584,6.9584,6.9584,6.9584,6.9584,6.9584,6.9584,6.9584,6.9584,6.9584,6.9584,6.9584,6.9584,6.9584,6.9584,6.9584,6.9584,6.9584,6.9584,6.9584,6.9584,6.9584,6.9584,6.9584,6.9584,6.9584,6.9584,6.9584,6.9584,6.9584,6.9584,6.9584,6.9584,6.9584,6.9584,6.9584,6.9584,6.9584,6.9584,6.9584,6.9584,6.9584,6.9584,6.9584,6.9584,6.9584,6.9584,6.9584,6.9584,6.9584,6.9584,6.9584,6.9584,6.9584,6.9584,6.9584,6.9584,6.9584,6.9584,6.9584,6.9584,6.9584,6.9584,6.9584,6.9584,6.9584,6.7187,6.6345,6.6170,6.6118,6.6061,6.6009,6.5957,6.5911,6.5859,6.5807,6.5751,6.5704,6.5648,6.5596,6.5545,6.5484,6.5430,6.5369,6.5318,6.5260,6.5199,6.5149,6.5085,6.5028,6.4975,6.4957,6.4929,6.4907,6.4887,6.4859,6.4842,6.4817,6.4789,6.4767,6.4744,6.4724,6.4702,6.4672,6.4647,6.4627,6.4600,6.4570,6.4548,6.4523,6.4498,6.4488,6.4473,6.4468,6.4458,6.4444,6.4431,6.4424,6.4407,6.4399,6.4382,6.4367,6.4355,6.4342,6.4330,6.4318,6.4310,6.4293,6.4283,6.4266,6.4259,6.4241,6.4237,6.4234,6.4237,6.4229,6.4227,6.4227,6.4227,6.4229,6.4229,6.4222,6.4227,6.4227,6.4224,6.4224,6.4224,6.4222,6.4222,6.4217,6.4214,6.4222,6.4222,6.4217,6.4224,6.4219,6.4224,6.4222,6.4227,6.4222,6.4229,6.4229,6.4234,6.4232,6.4234,6.4241,6.4246,6.4249,6.4246,6.4249,6.4254,6.4256,6.4266,6.4271,6.4273,6.4278,6.4283,6.4286,6.4291,6.4296,6.4298,6.4298,6.4305,6.4305,6.4308,6.4313,6.4323,6.4325,6.4330,6.4333,6.4340,6.4350,6.4365,6.4377,6.4387,6.4399,6.4404,6.4421,6.4431,6.4444,6.4453,6.4461,6.4476,6.4483,6.4493,6.4510,6.4520,6.4535,6.4558,6.4582,6.4615,6.4640,6.4662,6.4692,6.4719,6.4739,6.4767,6.4792,6.4819,6.4844,6.4872,6.4897,6.4924,6.4950,6.4982,6.5010,6.5038,6.5063,6.5096,6.5123,6.5146,6.5174,6.5209,6.5265,6.5316,6.5362,6.5410,6.5466,6.5512,6.5568,6.5614,6.5671,6.5717,6.5774,6.5820,6.5877,6.5923,6.5980,6.6027,6.6103,6.6220,6.6330,6.6445,6.6564,6.6685,6.6802,6.6916,6.7034,6.7160,6.7292,6.7416,6.7552,6.7685,6.7811,6.9584,6.9584,6.9584,6.9584,6.9584,6.9584,6.9584,6.9584,6.9584,6.9584,6.9584,6.9584,6.9584,6.9584,6.9584,6.9584,6.9584,6.9584,6.9584,6.9584,6.9584,6.9584,6.9584,6.9584,6.9584,6.9584,6.9584,6.9584,6.9584,6.9584,6.9584,6.9584,6.9584,6.9584,6.9584,6.9584,6.9584,6.9584,6.9584,6.9584,6.9584,6.9584,6.9584,6.9584,6.9584,6.9584,6.9584,6.9584,6.9584,6.9584,6.9584,6.9584,6.9584,6.9584,6.9584,6.9584,6.9584,6.9584,6.9584,6.9584,6.9584,6.9584,6.9584,6.9584,6.9584,6.9584,6.9584,6.9584,6.9584,6.9584,6.9584,6.9584,6.9584,6.9584,6.9584,6.9584,6.9584,6.9584,6.9584,6.9584,6.9584,6.9584
6.9532,6.9532,6.9532,6.9532,6.9532,6.9532,6.9532,6.9532,6.9532,6.9532,6.9532,6.9532,6.9532,6.9532,6.9532,6.9532,6.9532,6.9532,6.9532,6.9532,6.9532,6.9532,6.9532,6.9532,6.9532,6.9532,6.9532,6.9532,6.9532,6.9532,6.9532,6.9532,6.9532,6.9532,6.9532,6.9532,6.9532,6.9532,6.9532,6.9532,6.9532,6.9532,6.9532,6.9532,6.9532,6.9532,6.9532,6.9532,6.9532,6.9532,6.9532,6.9532,6.9532,6.9532,6.9532,6.9532,6.9532,6.9532,6.9532,6.9532,6.9532,6.9532,6.9532,6.9532,6.9532,6.9532,6.9532,6.9532,6.9532,6.9532,6.9532,6.9532,6.9532,6.9532,6.9532,6.9532,6.9532,6.9532,6.9532,6.9532,6.9532,6.9532,6.9532,6.9532,6.9532,6.9532,6.9532,6.9532,6.9532,6.9532,6.9532,6.9532,6.9532,6.9532,6.9532,6.9532,6.9532,6.9532,6.9532,6.9532,6.9532,6.9532,6.9532,6.9532,6.9532,6.9532,6.9532,6.9532,6.9532,6.9532,6.9532,6.9532,6.9532,6.9532,6.9532,6.9532,6.9532,6.9532,6.9532,6.9532,6.9532,6.9532,6.9532,6.9532,6.9532,6.9532,6.9532,6.9532,6.9532,6.9532,6.9532,6.9532,6.9532,6.9532,6.9532,6.9532,6.9532,6.9532,6.9532,6.9532,6.9532,6.9532,6.9532,6.9532,6.9532,6.9532,6.7497,6.6535,6.6340,6.6144,6.6097,6.6045,6.5988,6.5936,6.5890,6.5838,6.5787,6.5735,6.5684,6.5630,6.5568,6.5512,6.5461,6.5400,6.5344,6.5288,6.5235,6.5179,6.5121,6.5060,6.5005,6.4952,6.4922,6.4899,6.4882,6.4857,6.4829,6.4807,6.4789,6.4759,6.4737,6.4714,6.4697,6.4667,6.4642,6.4620,6.4590,6.4563,6.4543,6.4510,6.4501,6.4491,6.4476,6.4466,6.4461,6.4451,6.4439,6.4421,6.4414,6.4402,6.4384,6.4370,6.4362,6.4345,6.4333,6.4325,6.4308,6.4300,6.4281,6.4269,6.4261,6.4249,6.4237,6.4219,6.4212,6.4207,6.4202,6.4200,6.4205,6.4200,6.4197,6.4202,6.4197,6.4195,6.4200,6.4192,6.4192,6.4197,6.4190,6.4190,6.4190,6.4195,6.4195,6.4192,6.4192,6.4200,6.4195,6.4195,6.4202,6.4202,6.4200,6.4210,6.4207,6.4214,6.4217,6.4222,6.4224,6.4222,6.4224,6.4234,6.4237,6.4239,6.4239,6.4244,6.4251,6.4251,6.4261,6.4264,6.4269,6.4273,6.4273,6.4281,6.4281,6.4283,6.4293,6.4296,6.4296,6.4300,6.4308,6.4313,6.4318,6.4328,6.4342,6.4355,6.4365,6.4372,6.4387,6.4394,6.4404,6.4416,6.4431,6.4439,6.4453,6.4461,6.4476,6.4498,6.4518,6.4543,6.4567,6.4600,6.4625,6.4647,6.4677,6.4699,6.4729,6.4752,6.4777,6.4809,6.4834,6.4862,6.4887,6.4909,6.4934,6.4962,6.4995,6.5017,6.5045,6.5080,6.5103,6.5136,6.5159,6.5192,6.5222,6.5270,6.5316,6.5369,6.5420,6.5471,6.5517,6.5571,6.5617,6.5671,6.5727,6.5774,6.5825,6.5877,6.5934,6.5986,6.6058,6.6178,6.6290,6.6400,6.6521,6.6640,6.6757,6.6874,6.6994,6.7112,6.7243,6.7375,6.7500,6.7636,6.7764,6.9532,6.9532,6.9532,6.9532,6.9532,6.9532,6.9532,6.9532,6.9532,6.9532,6.9532,6.9532,6.9532,6.9532,6.9532,6.9532,6.9532,6.9532,6.9532,6.9532,6.9532,6.9532,6.9532,6.9532,6.9532,6.9532,6.9532,6.9532,6.9532,6.9532,6.9532,6.9532,6.9532,6.9532,6.9532,6.9532,6.9532,6.9532,6.9532,6.9532,6.9532,6.9532,6.9532,6.9532,6.9532,6.9532,6.9532,6.9532,6.9532,6.9532,6.9532,6.9532,6.9532,6.9532,6.9532,6.9532,6.9532,6.9532,6.9532,6.9532,6.9532,6.9532,6.9532,6.9532,6.9532,6.9532,6.9532,6.9532,6.9532,6.9532,6.9532,6.9532,6.9532,6.9532,6.9532,6.9532,6.9532,6.9532,6.9532,6.9532,6.9532,6.9532,6.9532
6.9471,6.9471,6.9471,6.9471,6.9471,6.9471,6.9471,6.9471,6.9471,6.9471,6.9471,6.9471,6.9471,6.9471,6.9471,6.9471,6.9471,6.9471,6.9471,6.9471,6.9471,6.9471,6.9471,6.9471,6.9471,6.9471,6.9471,6.9471,6.9471,6.9471,6.9471,6.9471,6.9471,6.9471,6.9471,6.9471,6.9471,6.9471,6.9471,6.9471,6.9471,6.9471,6.9471,6.9471,6.9471,6.9471,6.9471,6.9471,6.9471,6.9471,6.9471,6.9471,6.9471,6.9471,6.9471,6.9471,6.9471,6.9471,6.9471,6.9471,6.9471,6.9471,6.9471,6.9471,6.9471,6.9471,6.9471,6.9471,6.9471,6.9471,6.9471,6.9471,6.9471,6.9471,6.9471,6.9471,6.9471,6.9471,6.9471,6.9471,6.9471,6.9471,6.9471,6.9471,6.9471,6.9471,6.9471,6.9471,6.9471,6.9471,6.9471,6.9471,6.9471,6.9471,6.9471,6.9471,6.9471,6.9471,6.9471,6.9471,6.9471,6.9471,6.9471,6.9471,6.9471,6.9471,6.9471,6.9471,6.9471,6.9471,6.9471,6.9471,6.9471,6.9471,6.9471,6.9471,6.9471,6.9471,6.9471,6.9471,6.9471,6.9471,6.9471,6.9471,6.9471,6.9471,6.9471,6.9471,6.9471,6.9471,6.9471,6.9471,6.9471,6.9471,6.9471,6.9471,6.9471,6.9471,6.9471,6.9471,6.9471,6.9471,6.9471,6.9471,6.9471,6.9471,6.9471,6.6914,6.6524,6.6324,6.6126,6.6069,6.6022,6.5970,6.5913,6.5861,6.5815,6.5763,6.5712,6.5661,6.5599,6.5548,6.5486,6.5430,6.5379,6.5318,6.5260,6.5204,6.5149,6.5096,6.5033,6.4975,6.4917,6.4894,6.4869,6.4847,6.4824,6.4799,6.4777,6.4754,6.4737,6.4707,6.4689,6.4667,6.4635,6.4610,6.4587,6.4558,6.4535,6.4513,6.4503,6.4493,6.4478,6.4473,6.4463,6.4453,6.4436,6.4424,6.4416,6.4399,6.4387,6.4374,6.4360,6.4347,6.4340,6.4323,6.4310,6.4298,6.4288,6.4276,6.4259,6.4246,6.4237,6.4224,6.4212,6.4200,6.4192,6.4175,6.4178,6.4173,6.4178,6.4175,6.4175,6.4175,6.4173,6.4173,6.4165,6.4170,6.4165,6.4163,6.4163,6.4170,6.4170,6.4165,6.4173,6.4168,6.4170,6.4175,6.4178,6.4180,6.4180,6.4187,6.4185,6.4187,6.4192,6.4200,6.4202,6.4200,6.4205,6.4207,6.4210,6.4219,6.4222,6.4222,6.4232,6.4229,6.4239,6.4239,6.4241,6.4251,6.4251,6.4259,6.4264,6.4269,6.4271,6.4276,6.4278,6.4278,6.4281,6.4291,6.4300,6.4310,6.4315,6.4328,6.4337,6.4350,6.4360,6.4372,6.4382,6.4394,6.4404,6.4416,6.4436,6.4463,6.4483,6.4510,6.4530,6.4555,6.4585,6.4612,6.4632,6.4662,6.4689,6.4714,6.4737,6.4762,6.4794,6.4814,6.4847,6.4867,6.4899,6.4924,6.4952,6.4975,6.5007,6.5030,6.5065,6.5093,6.5121,6.5144,6.5171,6.5207,6.5235,6.5273,6.5323,6.5374,6.5420,6.5476,6.5520,6.5576,6.5622,6.5679,6.5725,6.5781,6.5836,6.5882,6.5934,6.6017,6.6129,6.6246,6.6356,6.6471,6.6587,6.6712,6.6823,6.6940,6.7061,6.7192,6.7327,6.7454,6.7590,6.7715,6.9471,6.9471,6.9471,6.9471,6.9471,6.9471,6.9471,6.9471,6.9471,6.9471,6.9471,6.9471,6.9471,6.9471,6.9471,6.9471,6.9471,6.9471,6.9471,6.9471,6.9471,6.9471,6.9471,6.9471,6.9471,6.9471,6.9471,6.9471,6.9471,6.9471,6.9471,6.9471,6.9471,6.9471,6.9471,6.9471,6.9471,6.9471,6.9471,6.9471,6.9471,6.9471,6.9471,6.9471,6.9471,6.9471,6.9471,6.9471,6.9471,6.9471,6.9471,6.9471,6.9471,6.9471,6.9471,6.9471,6.9471,6.9471,6.9471,6.9471,6.9471,6.9471,6.9471,6.9471,6.9471,6.9471,6.9471,6.9471,6.9471,6.9471,6.9471,6.9471,6.9471,6.9471,6.9471,6.9471,6.9471,6.9471,6.9471,6.9471,6.9471,6.9471,6.9471,6.9471
6.9417,6.9417,6.9417,6.9417,6.9417,6.9417,6.9417,6.9417,6.9417,6.9417,6.9417,6.9417,6.9417,6.9417,6.9417,6.9417,6.9417,6.9417,6.9417,6.9417,6.9417,6.9417,6.9417,6.9417,6.9417,6.9417,6.9417,6.9417,6.9417,6.9417,6.9417,6.9417,6.9417,6.9417,6.9417,6.9417,6.9417,6.9417,6.9417,6.9417,6.9417,6.9417,6.9417,6.9417,6.9417,6.9417,6.9417,6.9417,6.9417,6.9417,6.9417,6.9417,6.9417,6.9417,6.9417,6.9417,6.9417,6.9417,6.9417,6.9417,6.9417,6.9417,6.9417,6.9417,6.9417,6.9417,6.9417,6.9417,6.9417,6.9417,6.9417,6.9417,6.9417,6.9417,6.9417,6.9417,6.9417,6.9417,6.9417,6.9417,6.9417,6.9417,6.9417,6.9417,6.9417,6.9417,6.9417,6.9417,6.9417,6.9417,6.9417,6.9417,6.9417,6.9417,6.9417,6.9417,6.9417,6.9417,6.9417,6.9417,6.9417,6.9417,6.9417,6.9417,6.9417,6.9417,6.9417,6.9417,6.9417,6.9417,6.9417,6.9417,6.9417,6.9417,6.9417,6.9417,6.9417,6.9417,6.9417,6.9417,6.9417,6.9417,6.9417,6.9417,6.9417,6.9417,6.9417,6.9417,6.9417,6.9417,6.9417,6.9417,6.9417,6.9417,6.9417,6.9417,6.9417,6.9417,6.9417,6.9417,6.9417,6.9417,6.9417,6.9417,6.9417,6.9417,6.9417,6.7381,6.6717,6.6521,6.6314,6.6100,6.6048,6.5996,6.5944,6.5898,6.5841,6.5789,6.5743,6.5689,6.5632,6.5576,6.5522,6.5466,6.5410,6.5354,6.5298,6.5235,6.5184,6.5123,6.5063,6.5002,6.4942,6.4887,6.4869,6.4842,6.4817,6.4799,6.4772,6.4747,6.4729,6.4707,6.4684,6.4654,6.4630,6.4607,6.4582,6.4555,6.4530,6.4508,6.4503,6.4491,6.4481,6.4476,6.4466,6.4456,6.4444,6.4426,6.4419,6.4402,6.4394,6.4377,6.4362,6.4350,6.4342,6.4325,6.4318,6.4300,6.4288,6.4276,6.4269,6.4254,6.4246,6.4232,6.4219,6.4212,6.4192,6.4180,6.4173,6.4158,6.4146,6.4146,6.4148,6.4148,6.4148,6.4141,6.4146,6.4141,6.4138,6.4138,6.4138,6.4143,6.4141,6.4141,6.4141,6.4148,6.4146,6.4148,6.4151,6.4156,6.4163,6.4165,6.4163,6.4173,6.4175,6.4178,6.4175,6.4183,6.4183,6.4185,6.4192,6.4197,6.4200,6.4205,6.4210,6.4207,6.4217,6.4217,6.4219,6.4229,6.4229,6.4237,6.4237,6.4246,6.4251,6.4254,6.4254,6.4256,6.4261,6.4264,6.4278,6.4283,6.4296,6.4310,6.4318,6.4333,6.4340,6.4350,6.4362,6.4384,6.4407,6.4429,6.4449,6.4476,6.4498,6.4523,6.4543,6.4572,6.4595,6.4620,6.4650,6.4672,6.4702,6.4722,6.4754,6.4774,6.4802,6.4827,6.4854,6.4884,6.4907,6.4937,6.4960,6.4992,6.5015,6.5048,6.5073,6.5101,6.5133,6.5156,6.5187,6.5214,6.5247,6.5278,6.5323,6.5374,6.5428,6.5479,6.5530,6.5576,6.5627,6.5684,6.5730,6.5787,6.5833,6.5887,6.5973,6.6084,6.6202,6.6317,6.6432,6.6543,6.6664,6.6778,6.6895,6.7018,6.7133,6.7270,6.7411,6.7535,6.7669,6.9417,6.9417,6.9417,6.9417,6.9417,6.9417,6.9417,6.9417,6.9417,6.9417,6.9417,6.9417,6.9417,6.9417,6.9417,6.9417,6.9417,6.9417,6.9417,6.9417,6.9417,6.9417,6.9417,6.9417,6.9417,6.9417,6.9417,6.9417,6.9417,6.9417,6.9417,6.9417,6.9417,6.9417,6.9417,6.9417,6.9417,6.9417,6.9417,6.9417,6.9417,6.9417,6.9417,6.9417,6.9417,6.9417,6.9417,6.9417,6.9417,6.9417,6.9417,6.9417,6.9417,6.9417,6.9417,6.9417,6.9417,6.9417,6.9417,6.9417,6.9417,6.9417,6.9417,6.9417,6.9417,6.9417,6.9417,6.9417,6.9417,6.9417,6.9417,6.9417,6.9417,6.9417,6.9417,6.9417,6.9417,6.9417,6.9417,6.9417,6.9417,6.9417,6.9417,6.9417,6.9417
6.9368,6.9368,6.9368,6.9368,6.9368,6.9368,6.9368,6.9368,6.9368,6.9368,6.9368,6.9368,6.9368,6.9368,6.9368,6.9368,6.9368,6.9368,6.9368,6.9368,6.9368,6.9368,6.9368,6.9368,6.9368,6.9368,6.9368,6.9368,6.9368,6.9368,6.9368,6.9368,6.9368,6.9368,6.9368,6.9368,6.9368,6.9368,6.9368,6.9368,6.9368,6.9368,6.9368,6.9368,6.9368,6.9368,6.9368,6.9368,6.9368,6.9368,6.9368,6.9368,6.9368,6.9368,6.9368,6.9368,6.9368,6.9368,6.9368,6.9368,6.9368,6.9368,6.9368,6.9368,6.9368,6.9368,6.9368,6.9368,6.9368,6.9368,6.9368,6.9368,6.9368,6.9368,6.9368,6.9368,6.9368,6.9368,6.9368,6.9368,6.9368,6.9368,6.9368,6.9368,6.9368,6.9368,6.9368,6.9368,6.9368,6.9368,6.9368,6.9368,6.9368,6.9368,6.9368,6.9368,6.9368,6.9368,6.9368,6.9368,6.9368,6.9368,6.9368,6.9368,6.9368,6.9368,6.9368,6.9368,6.9368,6.9368,6.9368,6.9368,6.9368,6.9368,6.9368,6.9368,6.9368,6.9368,6.9368,6.9368,6.9368,6.9368,6.9368,6.9368,6.9368,6.9368,6.9368,6.9368,6.9368,6.9368,6.9368,6.9368,6.9368,6.9368,6.9368,6.9368,6.9368,6.9368,6.9368,6.9368,6.9368,6.9368,6.9368,6.9368,6.9368,6.9368,6.9368,6.9368,6.6903,6.6706,6.6516,6.6293,6.6084,6.6032,6.5980,6.5929,6.5872,6.5820,6.5769,6.5715,6.5663,6.5607,6.5545,6.5489,6.5433,6.5382,6.5321,6.5270,6.5214,6.5159,6.5101,6.5040,6.4975,6.4914,6.4857,6.4834,6.4812,6.4789,6.4764,6.4742,6.4724,6.4699,6.4672,6.4650,6.4622,6.4597,6.4575,6.4550,6.4525,6.4510,6.4505,6.4496,6.4481,6.4478,6.4463,6.4458,6.4441,6.4429,6.4421,6.4409,6.4397,6.4384,6.4370,6.4357,6.4345,6.4328,6.4318,6.4305,6.4298,6.4281,6.4273,6.4259,6.4246,6.4237,6.4224,6.4212,6.4200,6.4187,6.4173,6.4165,6.4151,6.4134,6.4121,6.4116,6.4121,6.4116,6.4119,6.4119,6.4114,6.4111,6.4111,6.4114,6.4114,6.4121,6.4119,6.4121,6.4124,6.4126,6.4129,6.4134,6.4136,6.4138,6.4141,6.4146,6.4148,6.4151,6.4158,6.4163,6.4160,6.4163,6.4170,6.4170,6.4173,6.4178,6.4183,6.4187,6.4195,6.4200,6.4205,6.4207,6.4207,6.4217,6.4214,6.4219,6.4229,6.4227,6.4232,6.4237,6.4244,6.4249,6.4251,6.4261,6.4278,6.4283,6.4296,6.4305,6.4328,6.4345,6.4367,6.4392,6.4419,6.4441,6.4463,6.4483,6.4510,6.4535,6.4560,6.4580,6.4612,6.4637,6.4662,6.4689,6.4714,6.4739,6.4767,6.4792,6.4817,6.4839,6.4864,6.4892,6.4922,6.4950,6.4972,6.5005,6.5033,6.5063,6.5091,6.5113,6.5141,6.5169,6.5199,6.5227,6.5260,6.5283,6.5334,6.5377,6.5433,6.5484,6.5535,6.5581,6.5632,6.5684,6.5740,6.5787,6.5843,6.5929,6.6045,6.6160,6.6272,6.6387,6.6498,6.6614,6.6736,6.6850,6.6967,6.7085,6.7222,6.7359,6.7495,6.7625,6.9368,6.9368,6.9368,6.9368,6.9368,6.9368,6.9368,6.9368,6.9368,6.9368,6.9368,6.9368,6.9368,6.9368,6.9368,6.9368,6.9368,6.9368,6.9368,6.9368,6.9368,6.9368,6.9368,6.9368,6.9368,6.9368,6.9368,6.9368,6.9368,6.9368,6.9368,6.9368,6.9368,6.9368,6.9368,6.9368,6.9368,6.9368,6.9368,6.9368,6.9368,6.9368,6.9368,6.9368,6.9368,6.9368,6.9368,6.9368,6.9368,6.9368,6.9368,6.9368,6.9368,6.9368,6.9368,6.9368,6.9368,6.9368,6.9368,6.9368,6.9368,6.9368,6.9368,6.9368,6.9368,6.9368,6.9368,6.9368,6.9368,6.9368,6.9368,6.9368,6.9368,6.9368,6.9368,6.9368,6.9368,6.9368,6.9368,6.9368,6.9368,6.9368,6.9368,6.9368,6.9368,6.9368
