7.1071,7.1071,7.1071,7.1071,7.1071,7.1071,7.1071,7.1071,7.1071,7.1071,7.1071,7.1071,7.1071,7.1071,7.1071,7.1071,7.1071,7.1071,7.1071,7.1071,7.1071,7.1071,7.1071,7.1071,7.1071,7.1071,7.1071,7.1071,7.1071,7.1071,7.1071,7.1071,7.1071,7.1071,7.1071,7.1071,7.1071,7.1071,7.1071,7.1071,7.1071,7.1071,7.1071,7.1071,7.1071,7.1071,7.1071,7.1071,7.1071,7.1071,7.1071,7.1071,7.1071,7.1071,7.1071,7.1071,7.1071,7.1071,7.1071,7.1071,7.1071,7.1071,7.1071,7.1071,7.1071,7.1071,7.1071,7.1071,7.1071,7.1071,7.1071,7.1071,7.1071,7.1071,7.1071,7.1071,7.1071,7.1071,7.1071,7.1071,7.1071,7.1071,7.1071,7.1071,7.1071,7.1071,7.1071,7.1071,7.1071,7.1071,7.1071,7.1071,7.1071,7.1071,7.1071,7.1071,7.1071,7.1071,7.1071,7.1071,7.1071,7.1071,7.1071,7.1077,7.1077,7.1077,7.1077,7.1077,7.1077,7.1077,7.1077,7.1077,7.1077,7.1077,7.1077,7.1077,7.1077,7.1077,7.1077,7.1077,7.1077,7.1077,7.1077,7.1077,7.1077,7.1077,7.1077,7.1077,7.1077,7.1077,7.1077,7.1077,7.1077,7.1077,7.1077,7.1077,7.1077,7.1077,7.1077,7.1077,7.1077,7.1077,7.1077,7.1077,7.1077,7.1077,7.1077,7.1077,7.1077,7.1077,7.1077,7.1077,7.1077,7.1077,7.1077,7.1077,7.1077,7.1077,7.1077,7.1077,7.1077,7.1077,7.1077,7.1077,7.1077,7.1077,7.1077,7.1077,7.1077,7.1077,7.1077,7.1077,7.1077,7.1077,7.1077,7.1077,7.1077,7.1077,7.1077,7.1077,7.1077,7.1077,7.1077,7.1077,7.1077,7.1077,7.1077,7.1077,7.1077,7.1077,7.1077,7.1077,7.1077,7.1077,7.1077,7.1077,7.1077,7.1077,7.1077,7.1077,7.1077,7.1077,7.1077,7.1077,7.1077,7.1077,7.1077,7.1077,7.1077,7.1077,7.1077,7.1077,7.1077,7.1077,7.1077,7.1077,7.1077,7.1077,7.1077,7.1077,7.1077,7.1077,7.1077,7.1077,7.1077,7.1077,7.1077,7.1077,7.1077,7.1077,7.1077,7.1077,7.1077,7.1077,7.1077,7.1077,7.1077,7.1077,7.1077,7.1077,7.1077,7.1077,7.1077,7.1077,7.1077,7.1077,7.1077,7.1077,7.1077,7.1077,7.1077,7.1077,7.1077,7.1077,7.1077,7.1077,7.1077,7.1077,7.1077,7.1077,7.1077,6.7500,6.7416,6.7330,6.7249,6.7157,6.7071,6.6986,6.6900,6.6815,6.6736,6.6653,6.6564,6.6482,6.6469,6.6448,6.6432,6.6421,6.6400,6.6390,6.6369,6.6353,6.6340,6.6324,6.6301,6.6290,6.6272,6.6251,6.6235,6.6217,6.6207,6.6183,6.6173,6.6149,6.6139,6.6121,6.6105,6.6082,6.6071,6.6048,6.6038,6.6027,6.6035,6.6051,6.6058,6.6056,6.6051,6.6040,6.6040,6.6035,6.6030,6.6022,6.6022,6.6012,6.6012,6.6009,6.5999,6.5993,6.5991,6.5986,6.5980,6.5975,6.5978,6.5967,6.5967,6.5960,6.5960,6.5952,6.5947,6.5947,6.5944,6.5934,6.5929,6.5911,6.5900,6.5892,6.5877,6.5872,6.5861,6.5859,6.5849,6.5846,6.5838,6.5833,6.5825,6.5818,6.5812,6.5818,6.5818,6.5823,6.5833,6.5838,6.5838,6.5846,6.5859,6.5867,6.5872,6.5880,6.5887,6.5885,6.5877,6.5874,6.5877,6.5869,6.5872,6.5864,6.5867,6.5859,6.5861,6.5859,6.5864,6.5869,6.5874,6.5880,6.5885,6.5890,6.5890,6.5900,6.5898,6.5908,6.5913,6.5913,6.5918,6.5918,6.5913,6.5908,6.5911,6.5908,6.5903,6.5900,6.5898,6.5900,6.5934,6.5965,6.6001,6.6045,6.6082,6.6113,6.6157,6.6194,6.2168,6.2055,6.1945,6.1834,6.1725,6.1614,6.1510,6.1406,6.1301,6.1198,6.1094,6.1040,6.1014,6.0987,6.0960,6.0934,6.0907,6.0881,6.0854,6.0828,6.0802,6.0775,6.0747,6.0722,6.0696,6.0672
7.1020,7.1020,7.1020,7.1020,7.1020,7.1020,7.1020,7.1020,7.1020,7.1020,7.1020,7.1020,7.1020,7.1020,7.1020,7.1020,7.1020,7.1020,7.1020,7.1020,7.1020,7.1020,7.1020,7.1020,7.1020,7.1020,7.1020,7.1020,7.1020,7.1020,7.1020,7.1020,7.1020,7.1020,7.1020,7.1020,7.1020,7.1020,7.1020,7.1020,7.1020,7.1020,7.1020,7.1020,7.1020,7.1020,7.1020,7.1020,7.1020,7.1020,7.1020,7.1020,7.1020,7.1020,7.1020,7.1020,7.1020,7.1020,7.1020,7.1020,7.1020,7.1020,7.1020,7.1020,7.1020,7.1020,7.1020,7.1020,7.1020,7.1020,7.1020,7.1020,7.1020,7.1020,7.1020,7.1020,7.1020,7.1020,7.1020,7.1020,7.1020,7.1020,7.1020,7.1020,7.1020,7.1020,7.1020,7.1020,7.1020,7.1020,7.1020,7.1020,7.1020,7.1020,7.1020,7.1020,7.1020,7.1020,7.1020,7.1020,7.1020,7.1020,7.1020,7.1020,7.1020,7.1020,7.1020,7.1020,7.1020,7.1020,7.1020,7.1020,7.1020,7.1020,7.1020,7.1020,7.1020,7.1020,7.1020,7.1020,7.1020,7.1020,7.1020,7.1020,7.1020,7.1020,7.1020,7.1020,7.1020,7.1020,7.1020,7.1020,7.1020,7.1020,7.1020,7.1020,7.1020,7.1020,7.1020,7.1020,7.1020,7.1020,7.1020,7.1020,7.1020,7.1020,7.1020,7.1020,7.1020,7.1020,7.1020,7.1020,7.1020,7.1020,7.1020,7.1020,7.1020,7.1020,7.1020,7.1020,7.1020,7.1020,7.1020,7.1020,7.1020,7.1020,7.1020,7.1020,7.1020,7.1020,7.1020,7.1020,7.1020,7.1020,7.1020,7.1020,7.1020,7.1020,7.1020,7.1020,7.1020,7.1020,7.1020,7.1020,7.1020,7.1020,7.1020,7.1020,7.1020,7.1020,7.1020,7.1020,7.1020,7.1020,7.1020,7.1020,7.1020,7.1020,7.1020,7.1020,7.1020,7.1020,7.1020,7.1020,7.1020,7.1020,7.1020,7.1020,7.1020,7.1020,7.1020,7.1020,7.1020,7.1020,7.1020,7.1020,7.1020,7.1020,7.1020,7.1020,7.1020,7.1020,7.1020,7.1020,7.1020,7.1020,7.1020,7.1020,7.1020,7.1020,7.1020,7.1020,7.1020,7.1020,7.1020,7.1020,7.1020,7.1020,7.1020,7.1020,7.1020,7.1020,7.1020,7.1020,7.1020,7.1020,7.1020,7.1020,7.1020,7.1020,7.1020,7.1020,7.1020,7.1020,7.1020,7.1020,7.1020,7.1020,7.1020,7.1020,7.1020,6.7582,6.7497,6.7405,6.7327,6.7241,6.7149,6.7069,6.6978,6.6898,6.6813,6.6725,6.6646,6.6564,6.6492,6.6477,6.6461,6.6445,6.6424,6.6408,6.6393,6.6382,6.6358,6.6343,6.6324,6.6309,6.6290,6.6280,6.6256,6.6246,6.6228,6.6207,6.6194,6.6178,6.6160,6.6139,6.6123,6.6110,6.6090,6.6071,6.6061,6.6038,6.6027,6.6038,6.6032,6.6027,6.6027,6.6019,6.6019,6.6009,6.6004,6.6001,6.6001,6.5991,6.5993,6.5988,6.5978,6.5975,6.5970,6.5965,6.5967,6.5957,6.5952,6.5949,6.5944,6.5944,6.5942,6.5931,6.5926,6.5923,6.5918,6.5911,6.5898,6.5892,6.5874,6.5864,6.5856,6.5841,6.5841,6.5833,6.5825,6.5820,6.5812,6.5799,6.5799,6.5787,6.5784,6.5779,6.5771,6.5771,6.5776,6.5784,6.5789,6.5797,6.5799,6.5810,6.5823,6.5820,6.5823,6.5820,6.5818,6.5815,6.5812,6.5810,6.5807,6.5799,6.5797,6.5799,6.5792,6.5794,6.5792,6.5802,6.5807,6.5807,6.5812,6.5823,6.5823,6.5833,6.5833,6.5841,6.5841,6.5846,6.5849,6.5843,6.5843,6.5833,6.5836,6.5828,6.5825,6.5823,6.5820,6.5825,6.5818,6.5820,6.5818,6.5815,6.5838,6.5880,6.5918,6.5955,6.2255,6.2142,6.2032,6.1920,6.1809,6.1704,6.1598,6.1492,6.1388,6.1283,6.1180,6.1076,6.1045,6.1018,6.0991,6.0963,6.0936,6.0910,6.0883,6.0857,6.0830,6.0804,6.0780,6.0755,6.0729,6.0705
7.0966,7.0966,7.0966,7.0966,7.0966,7.0966,7.0966,7.0966,7.0966,7.0966,7.0966,7.0966,7.0966,7.0966,7.0966,7.0966,7.0966,7.0966,7.0966,7.0966,7.0966,7.0966,7.0966,7.0966,7.0966,7.0966,7.0966,7.0966,7.0966,7.0966,7.0966,7.0966,7.0966,7.0966,7.0966,7.0966,7.0966,7.0966,7.0966,7.0966,7.0966,7.0966,7.0966,7.0966,7.0966,7.0966,7.0966,7.0966,7.0966,7.0966,7.0966,7.0966,7.0966,7.0966,7.0966,7.0966,7.0966,7.0966,7.0966,7.0966,7.0966,7.0966,7.0966,7.0966,7.0966,7.0966,7.0966,7.0966,7.0966,7.0966,7.0966,7.0966,7.0966,7.0966,7.0966,7.0966,7.0966,7.0966,7.0966,7.0966,7.0966,7.0966,7.0966,7.0966,7.0966,7.0966,7.0966,7.0966,7.0966,7.0966,7.0966,7.0966,7.0966,7.0966,7.0966,7.0966,7.0966,7.0966,7.0966,7.0966,7.0966,7.0966,7.0966,7.0966,7.0966,7.0966,7.0966,7.0966,7.0966,7.0966,7.0966,7.0966,7.0966,7.0966,7.0966,7.0966,7.0966,7.0966,7.0966,7.0966,7.0966,7.0966,7.0966,7.0966,7.0966,7.0966,7.0966,7.0966,7.0966,7.0966,7.0966,7.0966,7.0966,7.0966,7.0966,7.0966,7.0966,7.0966,7.0966,7.0966,7.0966,7.0966,7.0966,7.0966,7.0966,7.0966,7.0966,7.0966,7.0966,7.0966,7.0966,7.0966,7.0966,7.0966,7.0966,7.0966,7.0966,7.0966,7.0966,7.0966,7.0966,7.0966,7.0966,7.0966,7.0966,7.0966,7.0966,7.0966,7.0966,7.0966,7.0966,7.0966,7.0966,7.0966,7.0966,7.0966,7.0966,7.0966,7.0966,7.0966,7.0966,7.0966,7.0966,7.0966,7.0966,7.0966,7.0966,7.0966,7.0966,7.0966,7.0966,7.0966,7.0966,7.0966,7.0966,7.0966,7.0966,7.0966,7.0966,7.0966,7.0966,7.0966,7.0966,7.0966,7.0966,7.0966,7.0966,7.0966,7.0966,7.0966,7.0966,7.0966,7.0966,7.0966,7.0966,7.0966,7.0966,7.0966,7.0966,7.0966,7.0966,7.0966,7.0966,7.0966,7.0966,7.0966,7.0966,7.0966,7.0966,7.0966,7.0966,7.0966,7.0966,7.0966,7.0966,7.0966,7.0966,7.0966,7.0966,7.0966,7.0966,7.0966,7.0966,7.0966,7.0966,7.0966,7.0966,7.0966,7.0966,7.0966,7.0966,7.0966,7.0966,7.0966,7.0966,7.0966,7.0966,7.0966,7.0966,7.0966,7.0966,7.0966,6.7573,6.7486,6.7397,6.7319,6.7232,6.7141,6.7055,6.6970,6.6890,6.6799,6.6722,6.6640,6.6556,6.6495,6.6485,6.6464,6.6453,6.6437,6.6421,6.6398,6.6387,6.6369,6.6353,6.6335,6.6314,6.6296,6.6280,6.6264,6.6246,6.6235,6.6212,6.6202,6.6183,6.6162,6.6144,6.6134,6.6116,6.6095,6.6077,6.6061,6.6048,6.6019,6.6012,6.6012,6.6009,6.6004,6.5993,6.5996,6.5986,6.5980,6.5980,6.5978,6.5973,6.5967,6.5960,6.5960,6.5949,6.5952,6.5942,6.5936,6.5939,6.5934,6.5929,6.5921,6.5916,6.5913,6.5908,6.5908,6.5895,6.5890,6.5872,6.5867,6.5856,6.5838,6.5828,6.5815,6.5807,6.5802,6.5799,6.5787,6.5781,6.5779,6.5771,6.5766,6.5758,6.5751,6.5740,6.5738,6.5727,6.5727,6.5733,6.5738,6.5745,6.5761,6.5763,6.5756,6.5753,6.5756,6.5753,6.5745,6.5743,6.5740,6.5738,6.5740,6.5738,6.5730,6.5733,6.5725,6.5730,6.5730,6.5735,6.5745,6.5751,6.5751,6.5761,6.5761,6.5766,6.5771,6.5781,6.5781,6.5774,6.5769,6.5769,6.5763,6.5756,6.5753,6.5756,6.5748,6.5751,6.5743,6.5740,6.5743,6.5740,6.5735,6.5733,6.5735,6.5727,6.5725,6.5751,6.2230,6.2119,6.2007,6.1895,6.1786,6.1684,6.1580,6.1476,6.1370,6.1267,6.1163,6.1074,6.1047,6.1020,6.0994,6.0967,6.0941,6.0914,6.0888,6.0861,6.0835,6.0808,6.0786,6.0762,6.0738
7.0903,7.0903,7.0903,7.0903,7.0903,7.0903,7.0903,7.0903,7.0903,7.0903,7.0903,7.0903,7.0903,7.0903,7.0903,7.0903,7.0903,7.0903,7.0903,7.0903,7.0903,7.0903,7.0903,7.0903,7.0903,7.0903,7.0903,7.0903,7.0903,7.0903,7.0903,7.0903,7.0903,7.0903,7.0903,7.0903,7.0903,7.0903,7.0903,7.0903,7.0903,7.0903,7.0903,7.0903,7.0903,7.0903,7.0903,7.0903,7.0903,7.0903,7.0903,7.0903,7.0903,7.0903,7.0903,7.0903,7.0903,7.0903,7.0903,7.0903,7.0903,7.0903,7.0903,7.0903,7.0903,7.0903,7.0903,7.0903,7.0903,7.0903,7.0903,7.0903,7.0903,7.0903,7.0903,7.0903,7.0903,7.0903,7.0903,7.0903,7.0903,7.0903,7.0903,7.0903,7.0903,7.0903,7.0903,7.0903,7.0903,7.0903,7.0903,7.0903,7.0903,7.0903,7.0903,7.0903,7.0903,7.0903,7.0903,7.0903,7.0903,7.0903,7.0903,7.0903,7.0903,7.0903,7.0903,7.0903,7.0903,7.0903,7.0903,7.0903,7.0903,7.0903,7.0903,7.0903,7.0903,7.0903,7.0903,7.0903,7.0903,7.0903,7.0903,7.0903,7.0903,7.0903,7.0903,7.0903,7.0903,7.0903,7.0903,7.0903,7.0903,7.0903,7.0903,7.0903,7.0903,7.0903,7.0903,7.0903,7.0903,7.0903,7.0903,7.0903,7.0903,7.0903,7.0903,7.0903,7.0903,7.0903,7.0903,7.0903,7.0903,7.0903,7.0903,7.0903,7.0903,7.0903,7.0903,7.0903,7.0903,7.0903,7.0903,7.0903,7.0903,7.0903,7.0903,7.0903,7.0903,7.0903,7.0903,7.0903,7.0903,7.0903,7.0903,7.0903,7.0903,7.0903,7.0903,7.0903,7.0903,7.0903,7.0903,7.0903,7.0903,7.0903,7.0903,7.0903,7.0903,7.0903,7.0903,7.0903,7.0903,7.0903,7.0903,7.0903,7.0903,7.0903,7.0903,7.0903,7.0903,7.0903,7.0903,7.0903,7.0903,7.0903,7.0903,7.0903,7.0903,7.0903,7.0903,7.0903,7.0903,7.0903,7.0903,7.0903,7.0903,7.0903,7.0903,7.0903,7.0903,7.0903,7.0903,7.0903,7.0903,7.0903,7.0903,7.0903,7.0903,7.0903,7.0903,7.0903,7.0903,7.0903,7.0903,7.0903,7.0903,7.0903,7.0903,7.0903,7.0903,7.0903,7.0903,7.0903,7.0903,7.0903,7.0903,7.0903,7.0903,7.0903,7.0903,7.0903,7.0903,7.0903,7.0903,7.0903,7.0903,7.0903,7.0903,7.0903,7.0903,7.0903,7.0903,6.7565,6.7478,6.7394,6.7311,6.7224,6.7133,6.7053,6.6962,6.6876,6.6799,6.6714,6.6632,6.6545,6.6503,6.6487,6.6471,6.6456,6.6442,6.6421,6.6411,6.6387,6.6372,6.6353,6.6343,6.6324,6.6303,6.6290,6.6275,6.6251,6.6241,6.6217,6.6202,6.6188,6.6168,6.6149,6.6139,6.6121,6.6105,6.6084,6.6056,6.6038,6.6009,6.5988,6.5983,6.5978,6.5975,6.5975,6.5970,6.5967,6.5957,6.5952,6.5955,6.5944,6.5944,6.5936,6.5936,6.5926,6.5926,6.5923,6.5918,6.5916,6.5911,6.5905,6.5898,6.5892,6.5887,6.5882,6.5877,6.5864,6.5849,6.5841,6.5830,6.5815,6.5802,6.5792,6.5781,6.5779,6.5774,6.5766,6.5761,6.5753,6.5740,6.5740,6.5727,6.5725,6.5720,6.5712,6.5704,6.5699,6.5691,6.5691,6.5697,6.5699,6.5697,6.5699,6.5691,6.5694,6.5691,6.5689,6.5681,6.5684,6.5676,6.5673,6.5671,6.5673,6.5671,6.5663,6.5661,6.5668,6.5673,6.5673,6.5679,6.5684,6.5694,6.5699,6.5704,6.5709,6.5707,6.5704,6.5699,6.5699,6.5694,6.5684,6.5684,6.5681,6.5679,6.5676,6.5676,6.5673,6.5666,6.5668,6.5661,6.5658,6.5655,6.5658,6.5658,6.5650,6.5640,6.5612,6.2207,6.2094,6.1982,6.1872,6.1770,6.1668,6.1564,6.1460,6.1355,6.1252,6.1147,6.1078,6.1051,6.1025,6.0998,6.0972,6.0945,6.0918,6.0892,6.0865,6.0839,6.0817,6.0793,6.0769
7.0852,7.0852,7.0852,7.0852,7.0852,7.0852,7.0852,7.0852,7.0852,7.0852,7.0852,7.0852,7.0852,7.0852,7.0852,7.0852,7.0852,7.0852,7.0852,7.0852,7.0852,7.0852,7.0852,7.0852,7.0852,7.0852,7.0852,7.0852,7.0852,7.0852,7.0852,7.0852,7.0852,7.0852,7.0852,7.0852,7.0852,7.0852,7.0852,7.0852,7.0852,7.0852,7.0852,7.0852,7.0852,7.0852,7.0852,7.0852,7.0852,7.0852,7.0852,7.0852,7.0852,7.0852,7.0852,7.0852,7.0852,7.0852,7.0852,7.0852,7.0852,7.0852,7.0852,7.0852,7.0852,7.0852,7.0852,7.0852,7.0852,7.0852,7.0852,7.0852,7.0852,7.0852,7.0852,7.0852,7.0852,7.0852,7.0852,7.0852,7.0852,7.0852,7.0852,7.0852,7.0852,7.0852,7.0852,7.0852,7.0852,7.0852,7.0852,7.0852,7.0852,7.0852,7.0852,7.0852,7.0852,7.0852,7.0852,7.0852,7.0852,7.0852,7.0852,7.0852,7.0852,7.0852,7.0852,7.0852,7.0852,7.0852,7.0852,7.0852,7.0852,7.0852,7.0852,7.0852,7.0852,7.0852,7.0852,7.0852,7.0852,7.0852,7.0852,7.0852,7.0852,7.0852,7.0852,7.0852,7.0852,7.0852,7.0852,7.0852,7.0852,7.0852,7.0852,7.0852,7.0852,7.0852,7.0852,7.0852,7.0852,7.0852,7.0852,7.0852,7.0852,7.0852,7.0852,7.0852,7.0852,7.0852,7.0852,7.0852,7.0852,7.0852,7.0852,7.0852,7.0852,7.0852,7.0852,7.0852,7.0852,7.0852,7.0852,7.0852,7.0852,7.0852,7.0852,7.0852,7.0852,7.0852,7.0852,7.0852,7.0852,7.0852,7.0852,7.0852,7.0852,7.0852,7.0852,7.0852,7.0852,7.0852,7.0852,7.0852,7.0852,7.0852,7.0852,7.0852,7.0852,7.0852,7.0852,7.0852,7.0852,7.0852,7.0852,7.0852,7.0852,7.0852,7.0852,7.0852,7.0852,7.0852,7.0852,7.0852,7.0852,7.0852,7.0852,7.0852,7.0852,7.0852,7.0852,7.0852,7.0852,7.0852,7.0852,7.0852,7.0852,7.0852,7.0852,7.0852,7.0852,7.0852,7.0852,7.0852,7.0852,7.0852,7.0852,7.0852,7.0852,7.0852,7.0852,7.0852,7.0852,7.0852,7.0852,7.0852,7.0852,7.0852,7.0852,7.0852,7.0852,7.0852,7.0852,7.0852,7.0852,7.0852,7.0852,7.0852,7.0852,7.0852,7.0852,7.0852,7.0852,7.0852,7.0852,7.0852,7.0852,7.0852,7.0852,7.0852,7.0852,7.0852,7.0852,6.7641,6.7557,6.7470,6.7386,6.7294,6.7216,6.7125,6.7045,6.6959,6.6876,6.6791,6.6704,6.6619,6.6537,6.6511,6.6500,6.6479,6.6461,6.6445,6.6432,6.6411,6.6393,6.6382,6.6358,6.6343,6.6330,6.6309,6.6290,6.6280,6.6256,6.6241,6.6222,6.6212,6.6194,6.6178,6.6155,6.6139,6.6118,6.6097,6.6074,6.6051,6.6027,6.6001,6.5983,6.5965,6.5960,6.5952,6.5952,6.5947,6.5936,6.5934,6.5934,6.5923,6.5921,6.5921,6.5916,6.5908,6.5903,6.5898,6.5895,6.5895,6.5890,6.5882,6.5882,6.5872,6.5874,6.5856,6.5846,6.5838,6.5828,6.5812,6.5799,6.5794,6.5776,6.5771,6.5761,6.5748,6.5743,6.5740,6.5727,6.5727,6.5715,6.5707,6.5702,6.5694,6.5686,6.5686,6.5673,6.5671,6.5661,6.5653,6.5648,6.5640,6.5637,6.5635,6.5627,6.5625,6.5622,6.5620,6.5617,6.5614,6.5617,6.5614,6.5612,6.5604,6.5602,6.5599,6.5596,6.5604,6.5604,6.5612,6.5612,6.5617,6.5627,6.5632,6.5637,6.5643,6.5632,6.5630,6.5625,6.5620,6.5620,6.5614,6.5609,6.5602,6.5604,6.5596,6.5594,6.5591,6.5594,6.5594,6.5591,6.5584,6.5586,6.5579,6.5581,6.5573,6.5543,6.5509,6.5474,6.2182,6.2069,6.1957,6.1854,6.1752,6.1652,6.1548,6.1442,6.1339,6.1234,6.1131,6.1082,6.1056,6.1027,6.1000,6.0974,6.0947,6.0921,6.0894,6.0870,6.0846,6.0824,6.0799
7.0789,7.0789,7.0789,7.0789,7.0789,7.0789,7.0789,7.0789,7.0789,7.0789,7.0789,7.0789,7.0789,7.0789,7.0789,7.0789,7.0789,7.0789,7.0789,7.0789,7.0789,7.0789,7.0789,7.0789,7.0789,7.0789,7.0789,7.0789,7.0789,7.0789,7.0789,7.0789,7.0789,7.0789,7.0789,7.0789,7.0789,7.0789,7.0789,7.0789,7.0789,7.0789,7.0789,7.0789,7.0789,7.0789,7.0789,7.0789,7.0789,7.0789,7.0789,7.0789,7.0789,7.0789,7.0789,7.0789,7.0789,7.0789,7.0789,7.0789,7.0789,7.0789,7.0789,7.0789,7.0789,7.0789,7.0789,7.0789,7.0789,7.0789,7.0789,7.0789,7.0789,7.0789,7.0789,7.0789,7.0789,7.0789,7.0789,7.0789,7.0789,7.0789,7.0789,7.0789,7.0789,7.0789,7.0789,7.0789,7.0789,7.0789,7.0789,7.0789,7.0789,7.0789,7.0789,7.0789,7.0789,7.0789,7.0789,7.0789,7.0789,7.0789,7.0789,7.0789,7.0789,7.0789,7.0789,7.0789,7.0789,7.0789,7.0789,7.0789,7.0789,7.0789,7.0789,7.0789,7.0789,7.0789,7.0789,7.0789,7.0789,7.0789,7.0789,7.0789,7.0789,7.0789,7.0789,7.0789,7.0789,7.0789,7.0789,7.0789,7.0789,7.0789,7.0789,7.0789,7.0789,7.0789,7.0789,7.0789,7.0789,7.0789,7.0789,7.0789,7.0789,7.0789,7.0789,7.0789,7.0789,7.0789,7.0789,7.0789,7.0789,7.0789,7.0789,7.0789,7.0789,7.0789,7.0789,7.0789,7.0789,7.0789,7.0789,7.0789,7.0789,7.0789,7.0789,7.0789,7.0789,7.0789,7.0789,7.0789,7.0789,7.0789,7.0789,7.0789,7.0789,7.0789,7.0789,7.0789,7.0789,7.0789,7.0789,7.0789,7.0789,7.0789,7.0789,7.0789,7.0789,7.0789,7.0789,7.0789,7.0789,7.0789,7.0789,7.0789,7.0789,7.0789,7.0789,7.0789,7.0789,7.0789,7.0789,7.0789,7.0789,7.0789,7.0789,7.0789,7.0789,7.0789,7.0789,7.0789,7.0789,7.0789,7.0789,7.0789,7.0789,7.0789,7.0789,7.0789,7.0789,7.0789,7.0789,7.0789,7.0789,7.0789,7.0789,7.0789,7.0789,7.0789,7.0789,7.0789,7.0789,7.0789,7.0789,7.0789,7.0789,7.0789,7.0789,7.0789,7.0789,7.0789,7.0789,7.0789,7.0789,7.0789,7.0789,7.0789,7.0789,7.0789,7.0789,7.0789,7.0789,7.0789,7.0789,7.0789,7.0789,7.0789,7.0789,7.0789,7.0789,7.0789,7.0789,7.0789,6.7633,6.7543,6.7462,6.7373,6.7286,6.7208,6.7122,6.7031,6.6946,6.6863,6.6786,6.6701,6.6619,6.6535,6.6524,6.6506,6.6490,6.6471,6.6450,6.6437,6.6421,6.6398,6.6387,6.6369,6.6348,6.6330,6.6314,6.6301,6.6280,6.6267,6.6246,6.6233,6.6212,6.6194,6.6183,6.6160,6.6136,6.6108,6.6084,6.6064,6.6035,6.6019,6.5991,6.5967,6.5947,6.5931,6.5931,6.5923,6.5918,6.5918,6.5911,6.5905,6.5900,6.5898,6.5898,6.5887,6.5882,6.5880,6.5874,6.5874,6.5867,6.5867,6.5859,6.5859,6.5849,6.5838,6.5825,6.5815,6.5802,6.5787,6.5781,6.5763,6.5753,6.5745,6.5730,6.5727,6.5715,6.5709,6.5702,6.5694,6.5689,6.5686,6.5676,6.5668,6.5661,6.5658,6.5653,6.5645,6.5640,6.5627,6.5622,6.5607,6.5591,6.5576,6.5563,6.5566,6.5558,6.5561,6.5553,6.5555,6.5548,6.5550,6.5543,6.5545,6.5538,6.5540,6.5538,6.5538,6.5543,6.5548,6.5548,6.5550,6.5561,6.5561,6.5566,6.5563,6.5558,6.5555,6.5550,6.5545,6.5540,6.5535,6.5530,6.5525,6.5525,6.5522,6.5525,6.5522,6.5520,6.5512,6.5509,6.5507,6.5507,6.5504,6.5502,6.5479,6.5451,6.5410,6.5377,6.2269,6.2156,6.2044,6.1941,6.1838,6.1738,6.1632,6.1530,6.1426,6.1321,6.1218,6.1114,6.1085,6.1058,6.1031,6.1005,6.0978,6.0952,6.0925,6.0901,6.0877,6.0854,6.0830
7.0735,7.0735,7.0735,7.0735,7.0735,7.0735,7.0735,7.0735,7.0735,7.0735,7.0735,7.0735,7.0735,7.0735,7.0735,7.0735,7.0735,7.0735,7.0735,7.0735,7.0735,7.0735,7.0735,7.0735,7.0735,7.0735,7.0735,7.0735,7.0735,7.0735,7.0735,7.0735,7.0735,7.0735,7.0735,7.0735,7.0735,7.0735,7.0735,7.0735,7.0735,7.0735,7.0735,7.0735,7.0735,7.0735,7.0735,7.0735,7.0735,7.0735,7.0735,7.0735,7.0735,7.0735,7.0735,7.0735,7.0735,7.0735,7.0735,7.0735,7.0735,7.0735,7.0735,7.0735,7.0735,7.0735,7.0735,7.0735,7.0735,7.0735,7.0735,7.0735,7.0735,7.0735,7.0735,7.0735,7.0735,7.0735,7.0735,7.0735,7.0735,7.0735,7.0735,7.0735,7.0735,7.0735,7.0735,7.0735,7.0735,7.0735,7.0735,7.0735,7.0735,7.0735,7.0735,7.0735,7.0735,7.0735,7.0735,7.0735,7.0735,7.0735,7.0735,7.0735,7.0735,7.0735,7.0735,7.0735,7.0735,7.0735,7.0735,7.0735,7.0735,7.0735,7.0735,7.0735,7.0735,7.0735,7.0735,7.0735,7.0735,7.0735,7.0735,7.0735,7.0735,7.0735,7.0735,7.0735,7.0735,7.0735,7.0735,7.0735,7.0735,7.0735,7.0735,7.0735,7.0735,7.0735,7.0735,7.0735,7.0735,7.0735,7.0735,7.0735,7.0735,7.0735,7.0735,7.0735,7.0735,7.0735,7.0735,7.0735,7.0735,7.0735,7.0735,7.0735,7.0735,7.0735,7.0735,7.0735,7.0735,7.0735,7.0735,7.0735,7.0735,7.0735,7.0735,7.0735,7.0735,7.0735,7.0735,7.0735,7.0735,7.0735,7.0735,7.0735,7.0735,7.0735,7.0735,7.0735,7.0735,7.0735,7.0735,7.0735,7.0735,7.0735,7.0735,7.0735,7.0735,7.0735,7.0735,7.0735,7.0735,7.0735,7.0735,7.0735,7.0735,7.0735,7.0735,7.0735,7.0735,7.0735,7.0735,7.0735,7.0735,7.0735,7.0735,7.0735,7.0735,7.0735,7.0735,7.0735,7.0735,7.0735,7.0735,7.0735,7.0735,7.0735,7.0735,7.0735,7.0735,7.0735,7.0735,7.0735,7.0735,7.0735,7.0735,7.0735,7.0735,7.0735,7.0735,7.0735,7.0735,7.0735,7.0735,7.0735,7.0735,7.0735,7.0735,7.0735,7.0735,7.0735,7.0735,7.0735,7.0735,7.0735,7.0735,7.0735,7.0735,7.0735,7.0735,7.0735,7.0735,7.0735,7.0735,7.0735,7.0735,7.0735,7.0735,7.0735,7.0735,7.0735,7.0735,7.0735,7.0735,6.7620,6.7538,6.7449,6.7365,6.7278,6.7200,6.7114,6.7023,6.6946,6.6855,6.6778,6.6698,6.6611,6.6545,6.6529,6.6506,6.6490,6.6471,6.6461,6.6437,6.6427,6.6403,6.6387,6.6369,6.6358,6.6335,6.6324,6.6301,6.6285,6.6267,6.6251,6.6238,6.6217,6.6199,6.6168,6.6144,6.6121,6.6097,6.6074,6.6053,6.6027,6.6004,6.5988,6.5960,6.5942,6.5916,6.5903,6.5898,6.5895,6.5890,6.5885,6.5882,6.5877,6.5872,6.5874,6.5869,6.5859,6.5861,6.5851,6.5851,6.5849,6.5838,6.5836,6.5823,6.5807,6.5802,6.5784,6.5779,6.5761,6.5751,6.5743,6.5727,6.5717,6.5709,6.5697,6.5689,6.5686,6.5681,6.5668,6.5663,6.5655,6.5648,6.5648,6.5640,6.5630,6.5627,6.5617,6.5614,6.5607,6.5586,6.5576,6.5561,6.5545,6.5525,6.5515,6.5502,6.5499,6.5492,6.5494,6.5486,6.5484,6.5481,6.5484,6.5476,6.5474,6.5476,6.5469,6.5476,6.5476,6.5481,6.5486,6.5492,6.5499,6.5494,6.5489,6.5489,6.5484,6.5476,6.5471,6.5466,6.5461,6.5456,6.5456,6.5448,6.5451,6.5448,6.5443,6.5441,6.5443,6.5435,6.5438,6.5435,6.5428,6.5420,6.5387,6.5351,6.5313,6.5285,6.5247,6.2244,6.2131,6.2025,6.1923,6.1820,6.1718,6.1616,6.1514,6.1409,6.1305,6.1200,6.1116,6.1089,6.1062,6.1036,6.1009,6.0983,6.0956,6.0932,6.0907,6.0883,6.0861
7.0685,7.0685,7.0685,7.0685,7.0685,7.0685,7.0685,7.0685,7.0685,7.0685,7.0685,7.0685,7.0685,7.0685,7.0685,7.0685,7.0685,7.0685,7.0685,7.0685,7.0685,7.0685,7.0685,7.0685,7.0685,7.0685,7.0685,7.0685,7.0685,7.0685,7.0685,7.0685,7.0685,7.0685,7.0685,7.0685,7.0685,7.0685,7.0685,7.0685,7.0685,7.0685,7.0685,7.0685,7.0685,7.0685,7.0685,7.0685,7.0685,7.0685,7.0685,7.0685,7.0685,7.0685,7.0685,7.0685,7.0685,7.0685,7.0685,7.0685,7.0685,7.0685,7.0685,7.0685,7.0685,7.0685,7.0685,7.0685,7.0685,7.0685,7.0685,7.0685,7.0685,7.0685,7.0685,7.0685,7.0685,7.0685,7.0685,7.0685,7.0685,7.0685,7.0685,7.0685,7.0685,7.0685,7.0685,7.0685,7.0685,7.0685,7.0685,7.0685,7.0685,7.0685,7.0685,7.0685,7.0685,7.0685,7.0685,7.0685,7.0685,7.0685,7.0685,7.0685,7.0685,7.0685,7.0685,7.0685,7.0685,7.0685,7.0685,7.0685,7.0685,7.0685,7.0685,7.0685,7.0685,7.0685,7.0685,7.0685,7.0685,7.0685,7.0685,7.0685,7.0685,7.0685,7.0685,7.0685,7.0685,7.0685,7.0685,7.0685,7.0685,7.0685,7.0685,7.0685,7.0685,7.0685,7.0685,7.0685,7.0685,7.0685,7.0685,7.0685,7.0685,7.0685,7.0685,7.0685,7.0685,7.0685,7.0685,7.0685,7.0685,7.0685,7.0685,7.0685,7.0685,7.0685,7.0685,7.0685,7.0685,7.0685,7.0685,7.0685,7.0685,7.0685,7.0685,7.0685,7.0685,7.0685,7.0685,7.0685,7.0685,7.0685,7.0685,7.0685,7.0685,7.0685,7.0685,7.0685,7.0685,7.0685,7.0685,7.0685,7.0685,7.0685,7.0685,7.0685,7.0685,7.0685,7.0685,7.0685,7.0685,7.0685,7.0685,7.0685,7.0679,7.0679,7.0679,7.0679,7.0679,7.0679,7.0679,7.0679,7.0679,7.0679,7.0679,7.0679,7.0679,7.0679,7.0679,7.0679,7.0679,7.0679,7.0679,7.0679,7.0679,7.0679,7.0679,7.0679,7.0679,7.0679,7.0679,7.0679,7.0679,7.0679,7.0679,7.0679,7.0679,7.0679,7.0679,7.0679,7.0679,7.0679,7.0679,7.0679,7.0679,7.0679,7.0679,7.0679,7.0679,7.0679,7.0679,7.0679,7.0679,7.0679,7.0679,7.0679,7.0679,7.0679,7.0679,7.0679,7.0679,7.0679,7.0679,7.0679,7.0679,7.0679,7.0679,7.0679,7.0679,7.0679,7.0679,7.0679,7.0679,7.0679,6.7617,6.7524,6.7440,6.7354,6.7276,6.7187,6.7106,6.7023,6.6943,6.6855,6.6781,6.6698,6.6619,6.6550,6.6529,6.6511,6.6495,6.6477,6.6466,6.6442,6.6427,6.6408,6.6393,6.6374,6.6358,6.6340,6.6324,6.6311,6.6290,6.6272,6.6259,6.6230,6.6207,6.6188,6.6162,6.6139,6.6116,6.6087,6.6069,6.6045,6.6022,6.5996,6.5973,6.5949,6.5929,6.5905,6.5885,6.5874,6.5874,6.5872,6.5861,6.5856,6.5854,6.5849,6.5849,6.5841,6.5836,6.5830,6.5833,6.5828,6.5818,6.5810,6.5799,6.5787,6.5771,6.5758,6.5753,6.5743,6.5725,6.5715,6.5707,6.5697,6.5681,6.5671,6.5668,6.5655,6.5650,6.5643,6.5637,6.5635,6.5622,6.5622,6.5609,6.5609,6.5602,6.5596,6.5589,6.5571,6.5561,6.5545,6.5530,6.5509,6.5494,6.5484,6.5466,6.5451,6.5435,6.5430,6.5423,6.5420,6.5423,6.5420,6.5412,6.5415,6.5412,6.5405,6.5405,6.5415,6.5415,6.5425,6.5430,6.5425,6.5420,6.5420,6.5415,6.5405,6.5402,6.5402,6.5397,6.5387,6.5382,6.5377,6.5379,6.5377,6.5369,6.5372,6.5369,6.5362,6.5359,6.5364,6.5362,6.5356,6.5323,6.5290,6.5255,6.5217,6.5189,6.5154,6.5121,6.2218,6.2113,6.2007,6.1904,6.1802,6.1702,6.1598,6.1496,6.1393,6.1290,6.1185,6.1120,6.1091,6.1065,6.1038,6.1011,6.0985,6.0960,6.0938,6.0914,6.0890
7.0628,7.0628,7.0628,7.0628,7.0628,7.0628,7.0628,7.0628,7.0628,7.0628,7.0628,7.0628,7.0628,7.0628,7.0628,7.0628,7.0628,7.0628,7.0628,7.0628,7.0628,7.0628,7.0628,7.0628,7.0628,7.0628,7.0628,7.0628,7.0628,7.0628,7.0628,7.0628,7.0628,7.0628,7.0628,7.0628,7.0628,7.0628,7.0628,7.0628,7.0628,7.0628,7.0628,7.0628,7.0628,7.0628,7.0628,7.0628,7.0628,7.0628,7.0628,7.0628,7.0628,7.0628,7.0628,7.0628,7.0628,7.0628,7.0628,7.0628,7.0628,7.0628,7.0628,7.0628,7.0628,7.0628,7.0628,7.0628,7.0628,7.0628,7.0628,7.0628,7.0628,7.0628,7.0628,7.0628,7.0628,7.0628,7.0628,7.0628,7.0628,7.0628,7.0628,7.0628,7.0628,7.0628,7.0628,7.0628,7.0628,7.0628,7.0628,7.0628,7.0628,7.0628,7.0628,7.0628,7.0628,7.0628,7.0628,7.0628,7.0628,7.0628,7.0628,7.0628,7.0628,7.0628,7.0628,7.0628,7.0628,7.0628,7.0628,7.0628,7.0628,7.0628,7.0628,7.0628,7.0628,7.0628,7.0628,7.0628,7.0628,7.0628,7.0628,7.0628,7.0628,7.0628,7.0628,7.0628,7.0628,7.0628,7.0628,7.0628,7.0628,7.0628,7.0628,7.0628,7.0628,7.0628,7.0628,7.0628,7.0628,7.0628,7.0628,7.0628,7.0628,7.0628,7.0628,7.0628,7.0628,7.0628,7.0628,7.0628,7.0628,7.0628,7.0628,7.0628,7.0628,7.0628,7.0628,7.0628,7.0628,7.0628,7.0628,7.0628,7.0628,7.0628,7.0628,7.0628,7.0628,7.0628,7.0628,7.0628,7.0628,7.0628,7.0628,7.0628,7.0628,7.0628,7.0628,7.0628,7.0628,7.0628,7.0628,7.0628,7.0628,7.0628,7.0628,7.0628,7.0628,7.0628,7.0628,7.0628,7.0628,7.0628,7.0628,7.0628,7.0628,7.0628,7.0628,7.0628,7.0628,7.0628,7.0628,7.0628,7.0628,7.0628,7.0628,7.0628,7.0628,7.0628,7.0628,7.0628,7.0628,7.0628,7.0628,7.0628,7.0628,7.0628,7.0628,7.0628,7.0628,7.0628,7.0628,7.0628,7.0628,7.0628,7.0628,7.0628,7.0628,7.0628,7.0628,7.0628,7.0628,7.0628,7.0628,7.0628,7.0628,7.0628,7.0628,7.0628,7.0628,7.0628,7.0628,7.0628,7.0628,7.0628,7.0628,7.0628,7.0628,7.0628,7.0628,7.0628,7.0628,7.0628,7.0628,7.0628,7.0628,7.0628,7.0628,7.0628,7.0628,7.0628,7.0628,7.0628,7.0628,7.0628,6.7693,6.7606,6.7516,6.7432,6.7351,6.7262,6.7179,6.7101,6.7026,6.6943,6.6858,6.6778,6.6701,6.6616,6.6556,6.6540,6.6521,6.6500,6.6482,6.6471,6.6448,6.6432,6.6419,6.6398,6.6385,6.6369,6.6345,6.6330,6.6311,6.6298,6.6275,6.6249,6.6225,6.6196,6.6173,6.6149,6.6123,6.6100,6.6077,6.6053,6.6035,6.6014,6.5991,6.5967,6.5942,6.5923,6.5903,6.5880,6.5856,6.5851,6.5843,6.5843,6.5833,6.5833,6.5830,6.5820,6.5820,6.5812,6.5812,6.5802,6.5792,6.5781,6.5774,6.5763,6.5751,6.5735,6.5722,6.5712,6.5704,6.5689,6.5679,6.5671,6.5655,6.5648,6.5637,6.5630,6.5630,6.5617,6.5617,6.5609,6.5604,6.5591,6.5586,6.5584,6.5576,6.5566,6.5558,6.5543,6.5530,6.5509,6.5499,6.5479,6.5463,6.5448,6.5441,6.5420,6.5410,6.5390,6.5379,6.5367,6.5359,6.5351,6.5354,6.5351,6.5349,6.5341,6.5341,6.5349,6.5354,6.5354,6.5362,6.5351,6.5351,6.5346,6.5336,6.5331,6.5331,6.5323,6.5323,6.5318,6.5313,6.5308,6.5298,6.5296,6.5296,6.5293,6.5296,6.5293,6.5290,6.5288,6.5280,6.5260,6.5222,6.5187,6.5154,6.5126,6.5091,6.5058,6.5017,6.2306,6.2198,6.2094,6.1991,6.1888,6.1786,6.1686,6.1580,6.1478,6.1377,6.1272,6.1169,6.1122,6.1096,6.1069,6.1042,6.1016,6.0991,6.0969,6.0945,6.0921
7.0566,7.0566,7.0566,7.0566,7.0566,7.0566,7.0566,7.0566,7.0566,7.0566,7.0566,7.0566,7.0566,7.0566,7.0566,7.0566,7.0566,7.0566,7.0566,7.0566,7.0566,7.0566,7.0566,7.0566,7.0566,7.0566,7.0566,7.0566,7.0566,7.0566,7.0566,7.0566,7.0566,7.0566,7.0566,7.0566,7.0566,7.0566,7.0566,7.0566,7.0566,7.0566,7.0566,7.0566,7.0566,7.0566,7.0566,7.0566,7.0566,7.0566,7.0566,7.0566,7.0566,7.0566,7.0566,7.0566,7.0566,7.0566,7.0566,7.0566,7.0566,7.0566,7.0566,7.0566,7.0566,7.0566,7.0566,7.0566,7.0566,7.0566,7.0566,7.0566,7.0566,7.0566,7.0566,7.0566,7.0566,7.0566,7.0566,7.0566,7.0566,7.0566,7.0566,7.0566,7.0566,7.0566,7.0566,7.0566,7.0566,7.0566,7.0566,7.0566,7.0566,7.0566,7.0566,7.0566,7.0566,7.0566,7.0566,7.0566,7.0566,7.0566,7.0566,7.0566,7.0566,7.0566,7.0566,7.0566,7.0566,7.0566,7.0566,7.0566,7.0566,7.0566,7.0566,7.0566,7.0566,7.0566,7.0566,7.0566,7.0566,7.0566,7.0566,7.0566,7.0566,7.0566,7.0566,7.0566,7.0566,7.0566,7.0566,7.0566,7.0566,7.0566,7.0566,7.0566,7.0566,7.0566,7.0566,7.0566,7.0566,7.0566,7.0566,7.0566,7.0566,7.0566,7.0566,7.0566,7.0566,7.0566,7.0566,7.0566,7.0566,7.0566,7.0566,7.0566,7.0566,7.0566,7.0566,7.0566,7.0566,7.0572,7.0572,7.0572,7.0572,7.0572,7.0572,7.0572,7.0572,7.0572,7.0572,7.0572,7.0572,7.0572,7.0572,7.0572,7.0572,7.0572,7.0572,7.0572,7.0572,7.0572,7.0572,7.0572,7.0572,7.0572,7.0572,7.0572,7.0572,7.0572,7.0572,7.0572,7.0572,7.0572,7.0572,7.0572,7.0572,7.0572,7.0572,7.0572,7.0572,7.0572,7.0572,7.0572,7.0572,7.0572,7.0572,7.0572,7.0572,7.0572,7.0572,7.0572,7.0572,7.0572,7.0572,7.0572,7.0572,7.0572,7.0572,7.0572,7.0572,7.0572,7.0572,7.0572,7.0572,7.0572,7.0572,7.0572,7.0572,7.0572,7.0572,7.0572,7.0572,7.0572,7.0572,7.0572,7.0572,7.0572,7.0572,7.0572,7.0572,7.0572,7.0572,7.0572,7.0572,7.0572,7.0572,7.0572,7.0572,7.0572,7.0572,7.0572,7.0572,7.0572,7.0572,7.0572,7.0572,7.0572,7.0572,7.0572,7.0572,7.0572,7.0572,7.0572,7.0572,7.0572,7.0572,6.7680,6.7598,6.7508,6.7424,6.7346,6.7262,6.7181,6.7104,6.7026,6.6940,6.6860,6.6786,6.6704,6.6624,6.6561,6.6545,6.6521,6.6506,6.6487,6.6471,6.6458,6.6442,6.6424,6.6403,6.6385,6.6369,6.6356,6.6330,6.6311,6.6283,6.6259,6.6241,6.6209,6.6186,6.6168,6.6144,6.6121,6.6095,6.6071,6.6043,6.6027,6.5999,6.5983,6.5960,6.5936,6.5916,6.5887,6.5869,6.5843,6.5828,6.5823,6.5820,6.5810,6.5805,6.5802,6.5802,6.5797,6.5789,6.5784,6.5771,6.5761,6.5748,6.5733,6.5722,6.5709,6.5704,6.5686,6.5676,6.5666,6.5658,6.5648,6.5632,6.5620,6.5617,6.5607,6.5604,6.5596,6.5586,6.5584,6.5573,6.5566,6.5561,6.5553,6.5553,6.5545,6.5527,6.5512,6.5502,6.5484,6.5463,6.5453,6.5433,6.5423,6.5405,6.5395,6.5374,6.5359,6.5349,6.5336,6.5316,6.5301,6.5288,6.5290,6.5283,6.5285,6.5283,6.5278,6.5283,6.5293,6.5283,6.5278,6.5273,6.5268,6.5263,6.5263,6.5255,6.5252,6.5245,6.5240,6.5240,6.5235,6.5230,6.5222,6.5224,6.5217,6.5219,6.5214,6.5217,6.5209,6.5192,6.5164,6.5128,6.5096,6.5058,6.5028,6.4995,6.4957,6.4917,6.4887,6.2283,6.2179,6.2076,6.1973,6.1870,6.1768,6.1666,6.1564,6.1462,6.1359,6.1256,6.1154,6.1127,6.1100,6.1074,6.1047,6.1023,6.0998,6.0976,6.0952
7.0513,7.0513,7.0513,7.0513,7.0513,7.0513,7.0513,7.0513,7.0513,7.0513,7.0513,7.0513,7.0513,7.0513,7.0513,7.0513,7.0513,7.0513,7.0513,7.0513,7.0513,7.0513,7.0513,7.0513,7.0513,7.0513,7.0513,7.0513,7.0513,7.0513,7.0513,7.0513,7.0513,7.0513,7.0513,7.0513,7.0513,7.0513,7.0513,7.0513,7.0513,7.0513,7.0513,7.0513,7.0513,7.0513,7.0513,7.0513,7.0513,7.0513,7.0513,7.0513,7.0513,7.0513,7.0513,7.0513,7.0513,7.0513,7.0513,7.0513,7.0513,7.0513,7.0513,7.0513,7.0513,7.0513,7.0513,7.0513,7.0513,7.0513,7.0513,7.0513,7.0513,7.0513,7.0513,7.0513,7.0513,7.0513,7.0513,7.0513,7.0513,7.0513,7.0513,7.0513,7.0513,7.0513,7.0513,7.0513,7.0513,7.0513,7.0513,7.0513,7.0513,7.0513,7.0513,7.0513,7.0513,7.0513,7.0513,7.0513,7.0513,7.0513,7.0513,7.0513,7.0513,7.0513,7.0513,7.0513,7.0513,7.0513,7.0513,7.0513,7.0513,7.0513,7.0513,7.0513,7.0513,7.0513,7.0513,7.0513,7.0513,7.0513,7.0513,7.0513,7.0513,7.0513,7.0513,7.0513,7.0513,7.0513,7.0513,7.0513,7.0513,7.0513,7.0513,7.0513,7.0513,7.0513,7.0513,7.0513,7.0513,7.0513,7.0513,7.0513,7.0513,7.0513,7.0513,7.0513,7.0513,7.0513,7.0513,7.0513,7.0513,7.0513,7.0513,7.0513,7.0513,7.0513,7.0513,7.0513,7.0513,7.0513,7.0513,7.0513,7.0513,7.0513,7.0513,7.0513,7.0513,7.0513,7.0513,7.0513,7.0513,7.0513,7.0513,7.0513,7.0513,7.0513,7.0513,7.0513,7.0513,7.0513,7.0513,7.0513,7.0513,7.0513,7.0513,7.0513,7.0513,7.0513,7.0513,7.0513,7.0513,7.0513,7.0513,7.0513,7.0513,7.0513,7.0513,7.0513,7.0513,7.0513,7.0513,7.0513,7.0513,7.0513,7.0513,7.0513,7.0513,7.0513,7.0513,7.0513,7.0513,7.0513,7.0513,7.0513,7.0513,7.0513,7.0513,7.0513,7.0513,7.0513,7.0513,7.0513,7.0513,7.0513,7.0513,7.0513,7.0513,7.0513,7.0513,7.0513,7.0513,7.0513,7.0513,7.0513,7.0513,7.0513,7.0513,7.0513,7.0513,7.0513,7.0513,7.0513,7.0513,7.0513,7.0513,7.0513,7.0513,7.0513,7.0513,7.0513,7.0513,7.0513,7.0513,7.0513,7.0513,7.0513,7.0513,7.0513,7.0513,7.0513,7.0513,7.0513,7.0513,7.0513,7.0513,7.0513,6.7677,6.7587,6.7508,6.7421,6.7343,6.7254,6.7176,6.7098,6.7021,6.6943,6.6863,6.6783,6.6706,6.6627,6.6566,6.6545,6.6532,6.6516,6.6498,6.6477,6.6458,6.6448,6.6424,6.6408,6.6390,6.6374,6.6351,6.6324,6.6301,6.6277,6.6254,6.6230,6.6204,6.6175,6.6157,6.6134,6.6110,6.6079,6.6064,6.6035,6.6017,6.5991,6.5973,6.5949,6.5923,6.5905,6.5885,6.5861,6.5838,6.5812,6.5794,6.5789,6.5787,6.5787,6.5781,6.5779,6.5763,6.5753,6.5748,6.5730,6.5725,6.5707,6.5702,6.5686,6.5679,6.5663,6.5653,6.5645,6.5635,6.5620,6.5612,6.5602,6.5586,6.5586,6.5579,6.5568,6.5561,6.5555,6.5553,6.5540,6.5540,6.5532,6.5527,6.5515,6.5502,6.5481,6.5466,6.5451,6.5433,6.5423,6.5407,6.5392,6.5374,6.5364,6.5344,6.5329,6.5318,6.5306,6.5290,6.5270,6.5255,6.5242,6.5232,6.5222,6.5214,6.5212,6.5217,6.5214,6.5214,6.5209,6.5204,6.5194,6.5189,6.5189,6.5184,6.5176,6.5171,6.5166,6.5161,6.5161,6.5156,6.5154,6.5151,6.5144,6.5141,6.5138,6.5136,6.5133,6.5096,6.5065,6.5033,6.5000,6.4962,6.4924,6.4889,6.4854,6.4817,6.4782,6.2341,6.2248,6.2156,6.2060,6.1957,6.1852,6.1749,6.1647,6.1546,6.1444,6.1343,6.1238,6.1156,6.1129,6.1102,6.1078,6.1054,6.1029,6.1007,6.0983
7.0456,7.0456,7.0456,7.0456,7.0456,7.0456,7.0456,7.0456,7.0456,7.0456,7.0456,7.0456,7.0456,7.0456,7.0456,7.0456,7.0456,7.0456,7.0456,7.0456,7.0456,7.0456,7.0456,7.0456,7.0456,7.0456,7.0456,7.0456,7.0456,7.0456,7.0456,7.0456,7.0456,7.0456,7.0456,7.0456,7.0456,7.0456,7.0456,7.0456,7.0456,7.0456,7.0456,7.0456,7.0456,7.0456,7.0456,7.0456,7.0456,7.0456,7.0456,7.0456,7.0456,7.0456,7.0456,7.0456,7.0456,7.0456,7.0456,7.0456,7.0456,7.0456,7.0456,7.0456,7.0456,7.0456,7.0456,7.0456,7.0456,7.0456,7.0456,7.0456,7.0456,7.0456,7.0456,7.0456,7.0456,7.0456,7.0456,7.0456,7.0456,7.0456,7.0456,7.0456,7.0456,7.0456,7.0456,7.0456,7.0456,7.0456,7.0456,7.0456,7.0456,7.0456,7.0456,7.0456,7.0456,7.0456,7.0456,7.0456,7.0456,7.0456,7.0456,7.0456,7.0456,7.0456,7.0456,7.0456,7.0456,7.0456,7.0456,7.0456,7.0456,7.0456,7.0456,7.0456,7.0456,7.0456,7.0456,7.0456,7.0456,7.0456,7.0456,7.0456,7.0456,7.0456,7.0456,7.0456,7.0456,7.0456,7.0456,7.0456,7.0456,7.0456,7.0456,7.0456,7.0456,7.0456,7.0456,7.0456,7.0456,7.0456,7.0456,7.0456,7.0456,7.0456,7.0456,7.0456,7.0456,7.0456,7.0456,7.0456,7.0456,7.0456,7.0456,7.0456,7.0456,7.0456,7.0456,7.0456,7.0456,7.0456,7.0456,7.0456,7.0456,7.0456,7.0456,7.0456,7.0456,7.0456,7.0456,7.0456,7.0456,7.0456,7.0456,7.0456,7.0456,7.0456,7.0456,7.0456,7.0456,7.0456,7.0456,7.0456,7.0456,7.0456,7.0456,7.0456,7.0456,7.0456,7.0456,7.0456,7.0456,7.0456,7.0456,7.0456,7.0456,7.0456,7.0456,7.0456,7.0456,7.0456,7.0456,7.0456,7.0456,7.0456,7.0456,7.0456,7.0456,7.0456,7.0456,7.0456,7.0456,7.0456,7.0456,7.0456,7.0456,7.0456,7.0456,7.0456,7.0456,7.0456,7.0456,7.0456,7.0456,7.0456,7.0456,7.0456,7.0456,7.0456,7.0456,7.0456,7.0456,7.0456,7.0456,7.0456,7.0456,7.0456,7.0456,7.0456,7.0456,7.0456,7.0456,7.0456,7.0456,7.0456,7.0456,7.0456,7.0456,7.0456,7.0456,7.0456,7.0456,7.0456,7.0456,7.0456,7.0456,7.0456,7.0456,7.0456,7.0456,7.0456,7.0456,7.0456,7.0456,7.0456,7.0456,7.0456,7.0456,6.7666,6.7584,6.7500,6.7416,6.7338,6.7251,6.7173,6.7098,6.7026,6.6943,6.6866,6.6789,6.6709,6.6624,6.6566,6.6550,6.6532,6.6516,6.6503,6.6482,6.6464,6.6453,6.6429,6.6406,6.6382,6.6358,6.6335,6.6311,6.6290,6.6262,6.6238,6.6220,6.6196,6.6170,6.6147,6.6123,6.6095,6.6077,6.6053,6.6025,6.6004,6.5986,6.5962,6.5936,6.5913,6.5892,6.5869,6.5851,6.5830,6.5807,6.5784,6.5766,6.5763,6.5758,6.5751,6.5745,6.5727,6.5722,6.5709,6.5699,6.5684,6.5679,6.5661,6.5650,6.5645,6.5630,6.5617,6.5612,6.5596,6.5584,6.5573,6.5563,6.5555,6.5548,6.5548,6.5540,6.5530,6.5522,6.5522,6.5515,6.5504,6.5497,6.5484,6.5469,6.5451,6.5435,6.5420,6.5402,6.5387,6.5377,6.5362,6.5344,6.5329,6.5318,6.5303,6.5288,6.5275,6.5255,6.5240,6.5224,6.5212,6.5202,6.5187,6.5171,6.5151,6.5151,6.5141,6.5136,6.5131,6.5126,6.5121,6.5116,6.5116,6.5111,6.5103,6.5098,6.5098,6.5088,6.5088,6.5078,6.5073,6.5075,6.5068,6.5073,6.5070,6.5068,6.5038,6.5000,6.4965,6.4932,6.4897,6.4862,6.4832,6.4789,6.4759,6.4719,6.4682,6.3941,6.2299,6.2207,6.2115,6.2021,6.1929,6.1836,6.1734,6.1632,6.1530,6.1426,6.1326,6.1223,6.1160,6.1134,6.1107,6.1085,6.1060,6.1036,6.1014
7.0400,7.0400,7.0400,7.0400,7.0400,7.0400,7.0400,7.0400,7.0400,7.0400,7.0400,7.0400,7.0400,7.0400,7.0400,7.0400,7.0400,7.0400,7.0400,7.0400,7.0400,7.0400,7.0400,7.0400,7.0400,7.0400,7.0400,7.0400,7.0400,7.0400,7.0400,7.0400,7.0400,7.0400,7.0400,7.0400,7.0400,7.0400,7.0400,7.0400,7.0400,7.0400,7.0400,7.0400,7.0400,7.0400,7.0400,7.0400,7.0400,7.0400,7.0400,7.0400,7.0400,7.0400,7.0400,7.0400,7.0400,7.0400,7.0400,7.0400,7.0400,7.0400,7.0400,7.0400,7.0400,7.0400,7.0400,7.0400,7.0400,7.0400,7.0400,7.0400,7.0400,7.0400,7.0400,7.0400,7.0400,7.0400,7.0400,7.0400,7.0400,7.0400,7.0400,7.0400,7.0400,7.0400,7.0400,7.0400,7.0400,7.0400,7.0400,7.0400,7.0400,7.0400,7.0400,7.0400,7.0400,7.0400,7.0400,7.0400,7.0400,7.0400,7.0400,7.0400,7.0400,7.0400,7.0400,7.0400,7.0400,7.0400,7.0400,7.0400,7.0400,7.0400,7.0400,7.0400,7.0400,7.0400,7.0400,7.0400,7.0400,7.0400,7.0400,7.0400,7.0400,7.0400,7.0400,7.0400,7.0400,7.0400,7.0400,7.0400,7.0400,7.0400,7.0400,7.0400,7.0400,7.0400,7.0400,7.0400,7.0400,7.0400,7.0400,7.0400,7.0400,7.0400,7.0400,7.0400,7.0400,7.0400,7.0400,7.0400,7.0400,7.0400,7.0400,7.0400,7.0400,7.0400,7.0400,7.0400,7.0400,7.0400,7.0400,7.0400,7.0400,7.0400,7.0400,7.0400,7.0400,7.0400,7.0400,7.0400,7.0400,7.0400,7.0400,7.0400,7.0400,7.0400,7.0400,7.0400,7.0400,7.0400,7.0400,7.0400,7.0400,7.0400,7.0400,7.0400,7.0400,7.0400,7.0400,7.0400,7.0400,7.0400,7.0400,7.0400,7.0400,7.0400,7.0400,7.0400,7.0400,7.0400,7.0400,7.0400,7.0400,7.0400,7.0400,7.0400,7.0400,7.0400,7.0400,7.0400,7.0400,7.0400,7.0400,7.0400,7.0400,7.0400,7.0400,7.0400,7.0400,7.0400,7.0400,7.0400,7.0400,7.0400,7.0400,7.0400,7.0400,7.0400,7.0400,7.0400,7.0400,7.0400,7.0400,7.0400,7.0400,7.0400,7.0400,7.0400,7.0400,7.0400,7.0400,7.0400,7.0400,7.0400,7.0400,7.0400,7.0400,7.0400,7.0400,7.0400,7.0400,7.0400,7.0400,7.0400,7.0400,7.0400,7.0400,7.0400,7.0400,7.0400,7.0400,7.0400,7.0400,7.0400,7.0400,7.0400,7.0400,7.0400,6.7669,6.7584,6.7495,6.7411,6.7335,6.7257,6.7173,6.7101,6.7018,6.6946,6.6868,6.6786,6.6712,6.6630,6.6577,6.6561,6.6537,6.6527,6.6503,6.6487,6.6474,6.6445,6.6421,6.6398,6.6372,6.6353,6.6330,6.6301,6.6277,6.6256,6.6228,6.6204,6.6186,6.6160,6.6136,6.6113,6.6090,6.6061,6.6043,6.6022,6.5999,6.5973,6.5949,6.5931,6.5905,6.5887,6.5861,6.5838,6.5820,6.5799,6.5771,6.5748,6.5738,6.5733,6.5720,6.5709,6.5699,6.5686,6.5671,6.5661,6.5653,6.5643,6.5627,6.5617,6.5609,6.5599,6.5584,6.5571,6.5566,6.5550,6.5545,6.5535,6.5527,6.5517,6.5509,6.5504,6.5502,6.5492,6.5489,6.5484,6.5469,6.5453,6.5438,6.5425,6.5410,6.5395,6.5374,6.5356,6.5346,6.5326,6.5318,6.5303,6.5283,6.5273,6.5252,6.5240,6.5230,6.5209,6.5194,6.5181,6.5166,6.5151,6.5144,6.5126,6.5113,6.5093,6.5075,6.5058,6.5058,6.5053,6.5043,6.5043,6.5038,6.5033,6.5030,6.5020,6.5020,6.5010,6.5010,6.5005,6.5002,6.4995,6.4997,6.4990,6.4975,6.4937,6.4907,6.4874,6.4839,6.4797,6.4767,6.4732,6.4694,6.4654,6.4620,6.4590,6.3904,6.2350,6.2258,6.2165,6.2074,6.1980,6.1888,6.1797,6.1706,6.1614,6.1512,6.1411,6.1310,6.1207,6.1165,6.1138,6.1114,6.1091,6.1067,6.1042
7.0350,7.0350,7.0350,7.0350,7.0350,7.0350,7.0350,7.0350,7.0350,7.0350,7.0350,7.0350,7.0350,7.0350,7.0350,7.0350,7.0350,7.0350,7.0350,7.0350,7.0350,7.0350,7.0350,7.0350,7.0350,7.0350,7.0350,7.0350,7.0350,7.0350,7.0350,7.0350,7.0350,7.0350,7.0350,7.0350,7.0350,7.0350,7.0350,7.0350,7.0350,7.0350,7.0350,7.0350,7.0350,7.0350,7.0350,7.0350,7.0350,7.0350,7.0350,7.0350,7.0350,7.0350,7.0350,7.0350,7.0350,7.0350,7.0350,7.0350,7.0350,7.0350,7.0350,7.0350,7.0350,7.0350,7.0350,7.0350,7.0350,7.0350,7.0350,7.0350,7.0350,7.0350,7.0350,7.0350,7.0350,7.0350,7.0350,7.0350,7.0350,7.0350,7.0350,7.0350,7.0350,7.0350,7.0350,7.0350,7.0350,7.0350,7.0350,7.0350,7.0350,7.0350,7.0350,7.0350,7.0350,7.0350,7.0350,7.0350,7.0350,7.0350,7.0350,7.0350,7.0350,7.0350,7.0350,7.0350,7.0350,7.0350,7.0350,7.0350,7.0350,7.0350,7.0350,7.0350,7.0350,7.0350,7.0350,7.0350,7.0350,7.0350,7.0350,7.0350,7.0350,7.0350,7.0350,7.0350,7.0350,7.0350,7.0350,7.0350,7.0350,7.0350,7.0350,7.0350,7.0350,7.0350,7.0350,7.0350,7.0350,7.0350,7.0350,7.0350,7.0350,7.0350,7.0350,7.0350,7.0350,7.0350,7.0350,7.0350,7.0350,7.0350,7.0350,7.0350,7.0350,7.0350,7.0350,7.0350,7.0350,7.0350,7.0350,7.0350,7.0350,7.0350,7.0350,7.0350,7.0350,7.0350,7.0350,7.0350,7.0350,7.0350,7.0350,7.0350,7.0350,7.0350,7.0350,7.0350,7.0350,7.0350,7.0350,7.0350,7.0350,7.0350,7.0350,7.0350,7.0350,7.0350,7.0350,7.0350,7.0350,7.0350,7.0350,7.0350,7.0350,7.0350,7.0350,7.0350,7.0350,7.0350,7.0350,7.0350,7.0350,7.0350,7.0350,7.0350,7.0350,7.0350,7.0350,7.0350,7.0350,7.0350,7.0350,7.0350,7.0350,7.0350,7.0350,7.0350,7.0350,7.0350,7.0350,7.0350,7.0350,7.0350,7.0350,7.0350,7.0350,7.0350,7.0350,7.0350,7.0350,7.0350,7.0350,7.0350,7.0350,7.0350,7.0350,7.0350,7.0350,7.0350,7.0350,7.0350,7.0350,7.0350,7.0350,7.0350,7.0350,7.0350,7.0350,7.0350,7.0350,7.0350,7.0350,7.0350,7.0350,7.0350,7.0350,7.0350,7.0350,7.0350,7.0350,7.0350,7.0350,7.0350,7.0350,7.0350,7.0350,7.0350,7.0350,6.7663,6.7573,6.7495,6.7408,6.7332,6.7254,6.7173,6.7101,6.7018,6.6946,6.6868,6.6786,6.6709,6.6627,6.6577,6.6561,6.6548,6.6527,6.6514,6.6487,6.6458,6.6435,6.6416,6.6387,6.6361,6.6343,6.6319,6.6296,6.6267,6.6241,6.6222,6.6194,6.6170,6.6152,6.6126,6.6103,6.6079,6.6053,6.6035,6.6012,6.5991,6.5962,6.5944,6.5918,6.5895,6.5874,6.5856,6.5833,6.5807,6.5784,6.5761,6.5740,6.5715,6.5697,6.5686,6.5671,6.5658,6.5648,6.5643,6.5630,6.5620,6.5609,6.5596,6.5581,6.5576,6.5561,6.5553,6.5538,6.5527,6.5515,6.5509,6.5499,6.5497,6.5486,6.5479,6.5476,6.5471,6.5463,6.5458,6.5441,6.5428,6.5412,6.5392,6.5374,6.5364,6.5344,6.5334,6.5311,6.5301,6.5283,6.5268,6.5257,6.5237,6.5222,6.5209,6.5199,6.5179,6.5164,6.5151,6.5144,6.5126,6.5118,6.5106,6.5080,6.5068,6.5043,6.5030,6.5005,6.4992,6.4970,6.4965,6.4960,6.4960,6.4957,6.4952,6.4942,6.4937,6.4937,6.4927,6.4924,6.4922,6.4919,6.4907,6.4879,6.4839,6.4807,6.4769,6.4739,6.4704,6.4667,6.4627,6.4597,6.4555,6.4520,6.4004,6.3868,6.2399,6.2308,6.2216,6.2124,6.2032,6.1941,6.1847,6.1756,6.1666,6.1575,6.1483,6.1393,6.1292,6.1194,6.1169,6.1145,6.1122,6.1098,6.1074
7.0291,7.0291,7.0291,7.0291,7.0291,7.0291,7.0291,7.0291,7.0291,7.0291,7.0291,7.0291,7.0291,7.0291,7.0291,7.0291,7.0291,7.0291,7.0291,7.0291,7.0291,7.0291,7.0291,7.0291,7.0291,7.0291,7.0291,7.0291,7.0291,7.0291,7.0291,7.0291,7.0291,7.0291,7.0291,7.0291,7.0291,7.0291,7.0291,7.0291,7.0291,7.0291,7.0291,7.0291,7.0291,7.0291,7.0291,7.0291,7.0291,7.0291,7.0291,7.0291,7.0291,7.0291,7.0291,7.0291,7.0291,7.0291,7.0291,7.0291,7.0291,7.0291,7.0291,7.0291,7.0291,7.0291,7.0291,7.0291,7.0291,7.0291,7.0291,7.0291,7.0291,7.0291,7.0291,7.0291,7.0291,7.0291,7.0291,7.0291,7.0291,7.0291,7.0291,7.0291,7.0291,7.0291,7.0291,7.0291,7.0291,7.0291,7.0291,7.0291,7.0291,7.0291,7.0291,7.0291,7.0291,7.0291,7.0291,7.0291,7.0291,7.0291,7.0291,7.0291,7.0291,7.0291,7.0291,7.0291,7.0291,7.0291,7.0291,7.0291,7.0291,7.0291,7.0291,7.0291,7.0291,7.0291,7.0291,7.0291,7.0291,7.0291,7.0291,7.0291,7.0291,7.0291,7.0291,7.0291,7.0291,7.0291,7.0291,7.0291,7.0291,7.0291,7.0291,7.0291,7.0291,7.0291,7.0291,7.0291,7.0291,7.0291,7.0291,7.0291,7.0291,7.0291,7.0291,7.0291,7.0291,7.0291,7.0291,7.0291,7.0291,7.0291,7.0291,7.0291,7.0291,7.0291,7.0291,7.0291,7.0291,7.0291,7.0291,7.0291,7.0291,7.0291,7.0291,7.0291,7.0291,7.0291,7.0291,7.0291,7.0291,7.0291,7.0291,7.0291,7.0291,7.0291,7.0291,7.0291,7.0291,7.0291,7.0291,7.0291,7.0291,7.0291,7.0291,7.0291,7.0291,7.0291,7.0291,7.0291,7.0291,7.0291,7.0291,7.0291,7.0291,7.0291,7.0291,7.0291,7.0291,7.0291,7.0291,7.0291,7.0291,7.0291,7.0291,7.0291,7.0291,7.0291,7.0291,7.0291,7.0291,7.0291,7.0291,7.0291,7.0291,7.0291,7.0291,7.0291,7.0291,7.0291,7.0291,7.0291,7.0291,7.0291,7.0291,7.0291,7.0291,7.0291,7.0291,7.0291,7.0291,7.0291,7.0291,7.0291,7.0291,7.0291,7.0291,7.0291,7.0291,7.0291,7.0291,7.0291,7.0291,7.0291,7.0291,7.0291,7.0291,7.0291,7.0291,7.0291,7.0291,7.0291,7.0291,7.0291,7.0291,7.0291,7.0291,7.0291,7.0291,7.0291,7.0291,7.0291,7.0291,7.0291,7.0291,7.0291,7.0291,7.0291,7.0291,6.7737,6.7658,6.7576,6.7492,6.7405,6.7327,6.7254,6.7171,6.7093,6.7021,6.6943,6.6863,6.6786,6.6709,6.6630,6.6582,6.6566,6.6545,6.6521,6.6498,6.6477,6.6448,6.6429,6.6400,6.6382,6.6353,6.6327,6.6309,6.6285,6.6262,6.6233,6.6207,6.6188,6.6160,6.6142,6.6116,6.6087,6.6071,6.6043,6.6019,6.6004,6.5975,6.5955,6.5936,6.5908,6.5892,6.5864,6.5846,6.5823,6.5797,6.5776,6.5745,6.5725,6.5699,6.5673,6.5645,6.5640,6.5630,6.5617,6.5602,6.5596,6.5586,6.5568,6.5563,6.5548,6.5535,6.5530,6.5520,6.5509,6.5497,6.5481,6.5474,6.5471,6.5466,6.5458,6.5453,6.5441,6.5441,6.5425,6.5415,6.5392,6.5377,6.5362,6.5351,6.5334,6.5318,6.5303,6.5285,6.5265,6.5252,6.5237,6.5222,6.5207,6.5192,6.5184,6.5169,6.5149,6.5138,6.5131,6.5113,6.5106,6.5088,6.5073,6.5060,6.5040,6.5017,6.5002,6.4985,6.4960,6.4947,6.4927,6.4909,6.4884,6.4879,6.4874,6.4869,6.4864,6.4864,6.4854,6.4849,6.4852,6.4844,6.4817,6.4777,6.4747,6.4707,6.4669,6.4635,6.4600,6.4567,6.4528,6.4493,6.4463,6.4099,6.3967,6.3834,6.3696,6.2359,6.2267,6.2177,6.2083,6.1991,6.1900,6.1806,6.1715,6.1625,6.1535,6.1442,6.1352,6.1263,6.1203,6.1178,6.1156,6.1134,6.1109
7.0235,7.0235,7.0235,7.0235,7.0235,7.0235,7.0235,7.0235,7.0235,7.0235,7.0235,7.0235,7.0235,7.0235,7.0235,7.0235,7.0235,7.0235,7.0235,7.0235,7.0235,7.0235,7.0235,7.0235,7.0235,7.0235,7.0235,7.0235,7.0235,7.0235,7.0235,7.0235,7.0235,7.0235,7.0235,7.0235,7.0235,7.0235,7.0235,7.0235,7.0235,7.0235,7.0235,7.0235,7.0235,7.0235,7.0235,7.0235,7.0235,7.0235,7.0235,7.0235,7.0235,7.0235,7.0235,7.0235,7.0235,7.0235,7.0235,7.0235,7.0235,7.0235,7.0235,7.0235,7.0235,7.0235,7.0235,7.0235,7.0235,7.0235,7.0235,7.0235,7.0235,7.0235,7.0235,7.0235,7.0235,7.0235,7.0235,7.0235,7.0235,7.0235,7.0235,7.0235,7.0235,7.0235,7.0235,7.0235,7.0235,7.0235,7.0235,7.0235,7.0235,7.0235,7.0235,7.0235,7.0235,7.0235,7.0235,7.0235,7.0235,7.0235,7.0235,7.0235,7.0235,7.0235,7.0235,7.0235,7.0235,7.0235,7.0235,7.0235,7.0235,7.0235,7.0235,7.0235,7.0235,7.0235,7.0235,7.0235,7.0235,7.0235,7.0235,7.0235,7.0235,7.0235,7.0235,7.0235,7.0235,7.0235,7.0235,7.0235,7.0235,7.0235,7.0235,7.0235,7.0235,7.0235,7.0235,7.0235,7.0241,7.0241,7.0241,7.0241,7.0241,7.0241,7.0241,7.0241,7.0241,7.0241,7.0241,7.0241,7.0241,7.0241,7.0241,7.0241,7.0241,7.0241,7.0241,7.0241,7.0241,7.0241,7.0241,7.0241,7.0241,7.0241,7.0241,7.0241,7.0241,7.0241,7.0241,7.0241,7.0241,7.0241,7.0241,7.0241,7.0241,7.0241,7.0241,7.0241,7.0241,7.0241,7.0241,7.0241,7.0241,7.0241,7.0241,7.0241,7.0241,7.0241,7.0241,7.0241,7.0241,7.0241,7.0241,7.0241,7.0241,7.0241,7.0241,7.0241,7.0241,7.0241,7.0241,7.0241,7.0241,7.0241,7.0241,7.0241,7.0241,7.0241,7.0241,7.0241,7.0241,7.0241,7.0241,7.0241,7.0241,7.0241,7.0241,7.0241,7.0241,7.0241,7.0241,7.0241,7.0241,7.0241,7.0241,7.0241,7.0241,7.0241,7.0241,7.0241,7.0241,7.0241,7.0241,7.0241,7.0241,7.0241,7.0241,7.0241,7.0241,7.0241,7.0241,7.0241,7.0241,7.0241,7.0241,7.0241,7.0241,7.0241,7.0241,7.0241,7.0241,7.0241,7.0241,7.0241,7.0241,7.0241,7.0241,7.0241,7.0241,7.0241,7.0241,7.0241,7.0241,7.0241,7.0241,7.0241,7.0241,7.0241,7.0241,7.0241,6.7740,6.7650,6.7565,6.7481,6.7402,6.7330,6.7251,6.7171,6.7093,6.7015,6.6938,6.6860,6.6789,6.6706,6.6630,6.6585,6.6558,6.6540,6.6511,6.6492,6.6464,6.6437,6.6414,6.6395,6.6366,6.6343,6.6317,6.6293,6.6269,6.6246,6.6222,6.6202,6.6178,6.6149,6.6131,6.6108,6.6084,6.6061,6.6035,6.6012,6.5993,6.5970,6.5949,6.5926,6.5898,6.5877,6.5854,6.5836,6.5812,6.5787,6.5761,6.5730,6.5709,6.5684,6.5658,6.5632,6.5602,6.5594,6.5579,6.5568,6.5561,6.5550,6.5540,6.5525,6.5512,6.5502,6.5492,6.5484,6.5474,6.5458,6.5448,6.5443,6.5441,6.5428,6.5428,6.5420,6.5410,6.5395,6.5384,6.5369,6.5346,6.5331,6.5321,6.5301,6.5283,6.5273,6.5257,6.5240,6.5222,6.5207,6.5192,6.5181,6.5166,6.5154,6.5141,6.5126,6.5113,6.5106,6.5088,6.5080,6.5065,6.5045,6.5028,6.5007,6.4990,6.4975,6.4952,6.4937,6.4919,6.4899,6.4882,6.4864,6.4839,6.4827,6.4802,6.4792,6.4787,6.4782,6.4782,6.4774,6.4749,6.4719,6.4679,6.4642,6.4607,6.4577,6.4535,6.4505,6.4466,6.4429,6.4399,6.4197,6.4063,6.3931,6.3797,6.3659,6.2408,6.2318,6.2228,6.2136,6.2041,6.1950,6.1859,6.1768,6.1677,6.1584,6.1494,6.1402,6.1312,6.1236,6.1216,6.1194,6.1171,6.1149
7.0180,7.0180,7.0180,7.0180,7.0180,7.0180,7.0180,7.0180,7.0180,7.0180,7.0180,7.0180,7.0180,7.0180,7.0180,7.0180,7.0180,7.0180,7.0180,7.0180,7.0180,7.0180,7.0180,7.0180,7.0180,7.0180,7.0180,7.0180,7.0180,7.0180,7.0180,7.0180,7.0180,7.0180,7.0180,7.0180,7.0180,7.0180,7.0180,7.0180,7.0180,7.0180,7.0180,7.0180,7.0180,7.0180,7.0180,7.0180,7.0180,7.0180,7.0180,7.0180,7.0180,7.0180,7.0180,7.0180,7.0180,7.0180,7.0180,7.0180,7.0180,7.0180,7.0180,7.0180,7.0180,7.0180,7.0180,7.0180,7.0180,7.0180,7.0180,7.0180,7.0180,7.0180,7.0180,7.0180,7.0180,7.0180,7.0180,7.0180,7.0180,7.0180,7.0180,7.0180,7.0180,7.0180,7.0180,7.0180,7.0180,7.0180,7.0180,7.0180,7.0180,7.0180,7.0180,7.0180,7.0180,7.0180,7.0180,7.0180,7.0180,7.0180,7.0180,7.0180,7.0180,7.0180,7.0180,7.0180,7.0180,7.0180,7.0180,7.0180,7.0180,7.0180,7.0180,7.0180,7.0180,7.0180,7.0180,7.0180,7.0180,7.0180,7.0180,7.0180,7.0180,7.0180,7.0180,7.0180,7.0180,7.0180,7.0180,7.0180,7.0180,7.0180,7.0180,7.0180,7.0180,7.0180,7.0180,7.0180,7.0180,7.0180,7.0180,7.0180,7.0180,7.0180,7.0180,7.0180,7.0180,7.0180,7.0180,7.0180,7.0180,7.0180,7.0180,7.0180,7.0180,7.0180,7.0180,7.0180,7.0180,7.0180,7.0180,7.0180,7.0180,7.0180,7.0180,7.0180,7.0180,7.0180,7.0180,7.0180,7.0180,7.0180,7.0180,7.0180,7.0180,7.0180,7.0180,7.0180,7.0180,7.0180,7.0180,7.0180,7.0180,7.0180,7.0180,7.0180,7.0180,7.0180,7.0180,7.0180,7.0180,7.0180,7.0180,7.0180,7.0180,7.0180,7.0180,7.0180,7.0180,7.0180,7.0180,7.0180,7.0180,7.0180,7.0180,7.0180,7.0180,7.0180,7.0180,7.0180,7.0180,7.0180,7.0180,7.0180,7.0180,7.0180,7.0180,7.0180,7.0180,7.0180,7.0180,7.0180,7.0180,7.0180,7.0180,7.0180,7.0180,7.0180,7.0180,7.0180,7.0180,7.0180,7.0180,7.0180,7.0180,7.0180,7.0180,7.0180,7.0180,7.0180,7.0180,7.0180,7.0180,7.0180,7.0180,7.0180,7.0180,7.0180,7.0180,7.0180,7.0180,7.0180,7.0180,7.0180,7.0180,7.0180,7.0180,7.0180,7.0180,7.0180,7.0180,7.0180,7.0180,7.0180,7.0180,7.0180,7.0180,7.0180,7.0180,7.0180,7.0180,6.7734,6.7650,6.7565,6.7481,6.7408,6.7324,6.7246,6.7168,6.7090,6.7018,6.6940,6.6860,6.6789,6.6717,6.6646,6.6577,6.6548,6.6529,6.6498,6.6479,6.6450,6.6427,6.6403,6.6385,6.6358,6.6335,6.6306,6.6283,6.6259,6.6235,6.6212,6.6191,6.6168,6.6144,6.6116,6.6092,6.6074,6.6045,6.6030,6.6001,6.5983,6.5955,6.5934,6.5911,6.5887,6.5867,6.5849,6.5823,6.5792,6.5771,6.5740,6.5717,6.5686,6.5663,6.5637,6.5612,6.5591,6.5566,6.5545,6.5532,6.5527,6.5517,6.5504,6.5494,6.5479,6.5469,6.5461,6.5446,6.5441,6.5428,6.5423,6.5415,6.5410,6.5397,6.5395,6.5387,6.5369,6.5354,6.5339,6.5318,6.5301,6.5285,6.5275,6.5257,6.5237,6.5227,6.5207,6.5192,6.5181,6.5166,6.5154,6.5141,6.5123,6.5113,6.5101,6.5093,6.5080,6.5063,6.5058,6.5038,6.5020,6.5000,6.4987,6.4962,6.4950,6.4924,6.4912,6.4887,6.4874,6.4849,6.4832,6.4817,6.4794,6.4779,6.4757,6.4737,6.4719,6.4704,6.4692,6.4650,6.4620,6.4585,6.4543,6.4508,6.4473,6.4439,6.4402,6.4367,6.4333,6.4300,6.4165,6.4028,6.3894,6.3761,6.3623,6.2459,6.2369,6.2276,6.2186,6.2094,6.2003,6.1909,6.1818,6.1727,6.1634,6.1544,6.1453,6.1364,6.1276,6.1250,6.1229,6.1209,6.1187
7.0124,7.0124,7.0124,7.0124,7.0124,7.0124,7.0124,7.0124,7.0124,7.0124,7.0124,7.0124,7.0124,7.0124,7.0124,7.0124,7.0124,7.0124,7.0124,7.0124,7.0124,7.0124,7.0124,7.0124,7.0124,7.0124,7.0124,7.0124,7.0124,7.0124,7.0124,7.0124,7.0124,7.0124,7.0124,7.0124,7.0124,7.0124,7.0124,7.0124,7.0124,7.0124,7.0124,7.0124,7.0124,7.0124,7.0124,7.0124,7.0124,7.0124,7.0124,7.0124,7.0124,7.0124,7.0124,7.0124,7.0124,7.0124,7.0124,7.0124,7.0124,7.0124,7.0124,7.0124,7.0124,7.0124,7.0124,7.0124,7.0124,7.0124,7.0124,7.0124,7.0124,7.0124,7.0124,7.0124,7.0124,7.0124,7.0124,7.0124,7.0124,7.0124,7.0124,7.0124,7.0124,7.0124,7.0124,7.0124,7.0124,7.0124,7.0124,7.0124,7.0124,7.0124,7.0124,7.0124,7.0124,7.0124,7.0124,7.0124,7.0124,7.0124,7.0124,7.0124,7.0124,7.0124,7.0124,7.0124,7.0124,7.0124,7.0124,7.0124,7.0124,7.0124,7.0124,7.0124,7.0124,7.0124,7.0124,7.0124,7.0124,7.0124,7.0124,7.0124,7.0124,7.0124,7.0124,7.0124,7.0124,7.0124,7.0124,7.0124,7.0124,7.0124,7.0124,7.0124,7.0124,7.0124,7.0124,7.0124,7.0124,7.0124,7.0124,7.0124,7.0124,7.0124,7.0124,7.0124,7.0124,7.0124,7.0124,7.0124,7.0124,7.0124,7.0124,7.0124,7.0124,7.0124,7.0124,7.0124,7.0124,7.0124,7.0124,7.0124,7.0124,7.0124,7.0124,7.0124,7.0124,7.0124,7.0124,7.0124,7.0124,7.0124,7.0124,7.0124,7.0124,7.0124,7.0124,7.0124,7.0124,7.0124,7.0124,7.0124,7.0124,7.0124,7.0124,7.0124,7.0124,7.0124,7.0124,7.0124,7.0124,7.0124,7.0124,7.0124,7.0124,7.0124,7.0124,7.0124,7.0124,7.0124,7.0124,7.0124,7.0124,7.0124,7.0124,7.0124,7.0124,7.0124,7.0124,7.0124,7.0124,7.0124,7.0124,7.0124,7.0124,7.0124,7.0124,7.0124,7.0124,7.0124,7.0124,7.0124,7.0124,7.0124,7.0124,7.0124,7.0124,7.0124,7.0124,7.0124,7.0124,7.0124,7.0124,7.0124,7.0124,7.0124,7.0124,7.0124,7.0124,7.0124,7.0124,7.0124,7.0124,7.0124,7.0124,7.0124,7.0124,7.0124,7.0124,7.0124,7.0124,7.0124,7.0124,7.0124,7.0124,7.0124,7.0124,7.0124,7.0124,7.0124,7.0124,7.0124,7.0124,7.0124,7.0124,7.0124,7.0124,7.0124,7.0124,7.0124,7.0124,7.0124,6.7726,6.7647,6.7557,6.7484,6.7405,6.7327,6.7251,6.7168,6.7095,6.7013,6.6935,6.6866,6.6799,6.6736,6.6667,6.6593,6.6540,6.6516,6.6487,6.6466,6.6437,6.6414,6.6390,6.6366,6.6348,6.6324,6.6298,6.6275,6.6251,6.6228,6.6204,6.6175,6.6149,6.6131,6.6105,6.6087,6.6064,6.6035,6.6019,6.5991,6.5967,6.5944,6.5929,6.5900,6.5877,6.5859,6.5828,6.5802,6.5776,6.5753,6.5727,6.5697,6.5671,6.5650,6.5622,6.5596,6.5576,6.5545,6.5520,6.5499,6.5489,6.5476,6.5471,6.5456,6.5448,6.5433,6.5428,6.5418,6.5405,6.5397,6.5390,6.5379,6.5372,6.5372,6.5351,6.5341,6.5318,6.5308,6.5288,6.5275,6.5260,6.5240,6.5230,6.5207,6.5197,6.5181,6.5166,6.5154,6.5141,6.5123,6.5113,6.5106,6.5093,6.5080,6.5068,6.5053,6.5045,6.5033,6.5017,6.4997,6.4975,6.4960,6.4942,6.4922,6.4904,6.4884,6.4862,6.4847,6.4824,6.4804,6.4787,6.4767,6.4749,6.4734,6.4712,6.4692,6.4674,6.4642,6.4607,6.4577,6.4543,6.4505,6.4471,6.4431,6.4402,6.4362,6.4328,6.4298,6.4261,6.4124,6.3989,6.3858,6.3725,6.3585,6.2508,6.2417,6.2327,6.2237,6.2145,6.2053,6.1961,6.1868,6.1777,6.1686,6.1595,6.1505,6.1415,6.1328,6.1283,6.1263,6.1243,6.1223
7.0071,7.0071,7.0071,7.0071,7.0071,7.0071,7.0071,7.0071,7.0071,7.0071,7.0071,7.0071,7.0071,7.0071,7.0071,7.0071,7.0071,7.0071,7.0071,7.0071,7.0071,7.0071,7.0071,7.0071,7.0071,7.0071,7.0071,7.0071,7.0071,7.0071,7.0071,7.0071,7.0071,7.0071,7.0071,7.0071,7.0071,7.0071,7.0071,7.0071,7.0071,7.0071,7.0071,7.0071,7.0071,7.0071,7.0071,7.0071,7.0071,7.0071,7.0071,7.0071,7.0071,7.0071,7.0071,7.0071,7.0071,7.0071,7.0071,7.0071,7.0071,7.0071,7.0071,7.0071,7.0071,7.0071,7.0071,7.0071,7.0071,7.0071,7.0071,7.0071,7.0071,7.0071,7.0071,7.0071,7.0071,7.0071,7.0071,7.0071,7.0071,7.0071,7.0071,7.0071,7.0071,7.0071,7.0071,7.0071,7.0071,7.0071,7.0071,7.0071,7.0071,7.0071,7.0071,7.0071,7.0071,7.0071,7.0071,7.0071,7.0071,7.0071,7.0071,7.0071,7.0071,7.0071,7.0071,7.0071,7.0071,7.0071,7.0071,7.0071,7.0071,7.0071,7.0071,7.0071,7.0071,7.0071,7.0071,7.0071,7.0071,7.0071,7.0071,7.0071,7.0071,7.0071,7.0071,7.0071,7.0071,7.0071,7.0071,7.0071,7.0071,7.0071,7.0071,7.0071,7.0071,7.0071,7.0071,7.0071,7.0071,7.0071,7.0071,7.0071,7.0071,7.0071,7.0071,7.0071,7.0071,7.0071,7.0071,7.0071,7.0071,7.0071,7.0071,7.0071,7.0071,7.0071,7.0071,7.0071,7.0071,7.0071,7.0071,7.0071,7.0071,7.0071,7.0071,7.0071,7.0071,7.0071,7.0071,7.0071,7.0071,7.0071,7.0071,7.0071,7.0071,7.0071,7.0071,7.0071,7.0071,7.0071,7.0071,7.0071,7.0071,7.0071,7.0071,7.0071,7.0071,7.0071,7.0071,7.0071,7.0071,7.0071,7.0071,7.0071,7.0071,7.0071,7.0071,7.0071,7.0071,7.0071,7.0071,7.0071,7.0071,7.0071,7.0071,7.0071,7.0071,7.0071,7.0071,7.0071,7.0071,7.0071,7.0071,7.0071,7.0071,7.0071,7.0071,7.0071,7.0071,7.0071,7.0071,7.0071,7.0071,7.0071,7.0071,7.0071,7.0071,7.0071,7.0071,7.0071,7.0071,7.0071,7.0071,7.0071,7.0071,7.0071,7.0071,7.0071,7.0071,7.0071,7.0071,7.0071,7.0071,7.0071,7.0071,7.0071,7.0071,7.0071,7.0071,7.0071,7.0071,7.0071,7.0071,7.0071,7.0071,7.0071,7.0071,7.0071,7.0071,7.0071,7.0071,7.0071,7.0071,7.0071,7.0071,7.0071,7.0071,7.0071,7.0071,7.0071,7.0071,7.0071,7.0071,6.7720,6.7641,6.7557,6.7484,6.7400,6.7321,6.7249,6.7165,6.7090,6.7021,6.6956,6.6884,6.6821,6.6746,6.6683,6.6614,6.6545,6.6503,6.6479,6.6456,6.6432,6.6406,6.6377,6.6353,6.6330,6.6306,6.6283,6.6259,6.6233,6.6209,6.6191,6.6162,6.6139,6.6121,6.6092,6.6077,6.6048,6.6030,6.6006,6.5980,6.5962,6.5934,6.5913,6.5890,6.5869,6.5843,6.5818,6.5784,6.5758,6.5738,6.5712,6.5686,6.5661,6.5630,6.5609,6.5584,6.5555,6.5530,6.5509,6.5484,6.5453,6.5443,6.5433,6.5425,6.5415,6.5405,6.5392,6.5382,6.5367,6.5359,6.5359,6.5351,6.5341,6.5321,6.5311,6.5296,6.5278,6.5263,6.5242,6.5224,6.5209,6.5194,6.5179,6.5169,6.5151,6.5141,6.5128,6.5116,6.5106,6.5088,6.5075,6.5068,6.5050,6.5040,6.5033,6.5015,6.5002,6.4990,6.4972,6.4947,6.4932,6.4909,6.4892,6.4872,6.4854,6.4834,6.4817,6.4802,6.4784,6.4759,6.4742,6.4722,6.4704,6.4689,6.4669,6.4647,6.4610,6.4580,6.4543,6.4508,6.4468,6.4434,6.4404,6.4370,6.4330,6.4300,6.4261,6.4219,6.4092,6.3955,6.3822,6.3688,6.3549,6.3407,6.2468,6.2376,6.2285,6.2195,6.2103,6.2012,6.1920,6.1829,6.1736,6.1645,6.1557,6.1469,6.1379,6.1317,6.1296,6.1276,6.1256
7.0022,7.0022,7.0022,7.0022,7.0022,7.0022,7.0022,7.0022,7.0022,7.0022,7.0022,7.0022,7.0022,7.0022,7.0022,7.0022,7.0022,7.0022,7.0022,7.0022,7.0022,7.0022,7.0022,7.0022,7.0022,7.0022,7.0022,7.0022,7.0022,7.0022,7.0022,7.0022,7.0022,7.0022,7.0022,7.0022,7.0022,7.0022,7.0022,7.0022,7.0022,7.0022,7.0022,7.0022,7.0022,7.0022,7.0022,7.0022,7.0022,7.0022,7.0022,7.0022,7.0022,7.0022,7.0022,7.0022,7.0022,7.0022,7.0022,7.0022,7.0022,7.0022,7.0022,7.0022,7.0022,7.0022,7.0022,7.0022,7.0022,7.0022,7.0022,7.0022,7.0022,7.0022,7.0022,7.0022,7.0022,7.0022,7.0022,7.0022,7.0022,7.0022,7.0022,7.0022,7.0022,7.0022,7.0022,7.0022,7.0022,7.0022,7.0022,7.0022,7.0022,7.0022,7.0022,7.0022,7.0022,7.0022,7.0022,7.0022,7.0022,7.0022,7.0022,7.0022,7.0022,7.0022,7.0022,7.0022,7.0022,7.0022,7.0022,7.0022,7.0022,7.0022,7.0022,7.0022,7.0022,7.0022,7.0022,7.0022,7.0022,7.0022,7.0022,7.0022,7.0022,7.0022,7.0022,7.0022,7.0022,7.0022,7.0022,7.0022,7.0022,7.0022,7.0022,7.0022,7.0022,7.0022,7.0022,7.0022,7.0022,7.0022,7.0022,7.0022,7.0022,7.0022,7.0022,7.0022,7.0022,7.0022,7.0022,7.0022,7.0022,7.0022,7.0022,7.0022,7.0022,7.0022,7.0022,7.0022,7.0022,7.0022,7.0022,7.0022,7.0022,7.0022,7.0022,7.0022,7.0022,7.0022,7.0022,7.0022,7.0022,7.0022,7.0022,7.0022,7.0022,7.0022,7.0022,7.0022,7.0022,7.0022,7.0022,7.0022,7.0022,7.0022,7.0022,7.0022,7.0022,7.0022,7.0022,7.0022,7.0022,7.0022,7.0022,7.0022,7.0022,7.0022,7.0022,7.0022,7.0022,7.0022,7.0022,7.0022,7.0022,7.0022,7.0022,7.0022,7.0022,7.0022,7.0022,7.0022,7.0022,7.0022,7.0022,7.0022,7.0022,7.0022,7.0022,7.0022,7.0022,7.0022,7.0022,7.0022,7.0022,7.0022,7.0022,7.0022,7.0022,7.0022,7.0022,7.0022,7.0022,7.0022,7.0022,7.0022,7.0022,7.0022,7.0022,7.0022,7.0022,7.0022,7.0022,7.0022,7.0022,7.0022,7.0022,7.0022,7.0022,7.0022,7.0022,7.0022,7.0022,7.0022,7.0022,7.0022,7.0022,7.0022,7.0022,7.0022,7.0022,7.0022,7.0022,7.0022,7.0022,7.0022,7.0022,7.0022,7.0022,7.0022,7.0022,7.0022,7.0022,7.0022,7.0022,7.0022,6.7715,6.7639,6.7554,6.7481,6.7405,6.7321,6.7246,6.7181,6.7109,6.7039,6.6975,6.6900,6.6836,6.6762,6.6698,6.6630,6.6561,6.6492,6.6461,6.6437,6.6419,6.6395,6.6372,6.6345,6.6322,6.6298,6.6269,6.6246,6.6222,6.6204,6.6181,6.6152,6.6134,6.6110,6.6087,6.6066,6.6043,6.6014,6.5996,6.5970,6.5947,6.5929,6.5900,6.5874,6.5854,6.5820,6.5794,6.5769,6.5743,6.5720,6.5694,6.5671,6.5645,6.5620,6.5594,6.5563,6.5538,6.5512,6.5494,6.5463,6.5438,6.5418,6.5402,6.5392,6.5377,6.5364,6.5359,6.5349,6.5341,6.5334,6.5329,6.5308,6.5296,6.5280,6.5265,6.5245,6.5227,6.5217,6.5197,6.5187,6.5169,6.5154,6.5141,6.5126,6.5118,6.5103,6.5088,6.5075,6.5063,6.5050,6.5038,6.5028,6.5015,6.5002,6.4995,6.4982,6.4962,6.4945,6.4924,6.4902,6.4887,6.4869,6.4849,6.4832,6.4812,6.4794,6.4774,6.4757,6.4732,6.4714,6.4697,6.4677,6.4657,6.4637,6.4625,6.4585,6.4545,6.4510,6.4471,6.4441,6.4402,6.4372,6.4337,6.4298,6.4269,6.4232,6.4185,6.4067,6.3919,6.3785,6.3652,6.3513,6.3371,6.2517,6.2427,6.2336,6.2246,6.2154,6.2062,6.1970,6.1879,6.1788,6.1697,6.1609,6.1521,6.1431,6.1350,6.1330,6.1310,6.1290
6.9960,6.9960,6.9960,6.9960,6.9960,6.9960,6.9960,6.9960,6.9960,6.9960,6.9960,6.9960,6.9960,6.9960,6.9960,6.9960,6.9960,6.9960,6.9960,6.9960,6.9960,6.9960,6.9960,6.9960,6.9960,6.9960,6.9960,6.9960,6.9960,6.9960,6.9960,6.9960,6.9960,6.9960,6.9960,6.9960,6.9960,6.9960,6.9960,6.9960,6.9960,6.9960,6.9960,6.9960,6.9960,6.9960,6.9960,6.9960,6.9960,6.9960,6.9960,6.9960,6.9960,6.9960,6.9960,6.9960,6.9960,6.9960,6.9960,6.9960,6.9960,6.9960,6.9960,6.9960,6.9960,6.9960,6.9960,6.9960,6.9960,6.9960,6.9960,6.9960,6.9960,6.9960,6.9960,6.9960,6.9960,6.9960,6.9960,6.9960,6.9960,6.9960,6.9960,6.9960,6.9960,6.9960,6.9960,6.9960,6.9960,6.9960,6.9960,6.9960,6.9960,6.9960,6.9960,6.9960,6.9960,6.9960,6.9960,6.9960,6.9960,6.9960,6.9960,6.9960,6.9960,6.9960,6.9960,6.9960,6.9960,6.9960,6.9960,6.9960,6.9960,6.9960,6.9960,6.9960,6.9960,6.9960,6.9960,6.9960,6.9960,6.9960,6.9960,6.9960,6.9960,6.9960,6.9960,6.9960,6.9960,6.9960,6.9960,6.9960,6.9960,6.9960,6.9960,6.9960,6.9960,6.9960,6.9960,6.9960,6.9960,6.9960,6.9960,6.9960,6.9960,6.9960,6.9960,6.9960,6.9960,6.9960,6.9960,6.9960,6.9960,6.9960,6.9960,6.9960,6.9960,6.9960,6.9960,6.9960,6.9960,6.9960,6.9960,6.9960,6.9960,6.9960,6.9960,6.9960,6.9960,6.9960,6.9960,6.9960,6.9960,6.9960,6.9960,6.9960,6.9960,6.9960,6.9960,6.9960,6.9960,6.9960,6.9960,6.9960,6.9960,6.9960,6.9960,6.9960,6.9960,6.9960,6.9960,6.9960,6.9960,6.9960,6.9960,6.9960,6.9960,6.9960,6.9960,6.9960,6.9960,6.9960,6.9960,6.9960,6.9960,6.9960,6.9960,6.9960,6.9960,6.9960,6.9960,6.9960,6.9960,6.9960,6.9960,6.9960,6.9960,6.9960,6.9960,6.9960,6.9960,6.9960,6.9960,6.9960,6.9960,6.9960,6.9960,6.9960,6.9960,6.9960,6.9960,6.9960,6.9960,6.9960,6.9960,6.9960,6.9960,6.9960,6.9960,6.9960,6.9960,6.9960,6.9960,6.9960,6.9960,6.9960,6.9960,6.9960,6.9960,6.9960,6.9960,6.9960,6.9960,6.9960,6.9960,6.9960,6.9960,6.9960,6.9960,6.9960,6.9960,6.9960,6.9960,6.9960,6.9960,6.9960,6.9960,6.9960,6.9960,6.9960,6.9960,6.9960,6.9960,6.9960,6.9960,6.9960,6.7800,6.7718,6.7633,6.7560,6.7476,6.7402,6.7332,6.7262,6.7198,6.7130,6.7061,6.6991,6.6916,6.6847,6.6783,6.6714,6.6640,6.6574,6.6511,6.6453,6.6424,6.6400,6.6382,6.6358,6.6330,6.6311,6.6285,6.6256,6.6235,6.6212,6.6194,6.6170,6.6147,6.6123,6.6100,6.6071,6.6056,6.6027,6.6004,6.5986,6.5960,6.5942,6.5911,6.5890,6.5856,6.5836,6.5805,6.5784,6.5756,6.5725,6.5704,6.5679,6.5653,6.5627,6.5604,6.5579,6.5553,6.5527,6.5502,6.5471,6.5448,6.5423,6.5397,6.5372,6.5351,6.5346,6.5331,6.5323,6.5311,6.5308,6.5293,6.5278,6.5268,6.5245,6.5230,6.5219,6.5199,6.5187,6.5176,6.5164,6.5144,6.5131,6.5121,6.5103,6.5088,6.5080,6.5063,6.5055,6.5038,6.5025,6.5015,6.5007,6.4995,6.4977,6.4970,6.4955,6.4932,6.4917,6.4899,6.4879,6.4862,6.4837,6.4819,6.4804,6.4787,6.4762,6.4744,6.4729,6.4712,6.4687,6.4669,6.4650,6.4635,6.4610,6.4595,6.4550,6.4515,6.4473,6.4439,6.4409,6.4374,6.4335,6.4300,6.4266,6.4232,6.4195,6.4148,6.4041,6.3892,6.3749,6.3616,6.3474,6.3333,6.2568,6.2478,6.2385,6.2295,6.2205,6.2115,6.2023,6.1929,6.1838,6.1749,6.1661,6.1573,6.1483,6.1395,6.1364,6.1343,6.1323
6.9905,6.9905,6.9905,6.9905,6.9905,6.9905,6.9905,6.9905,6.9905,6.9905,6.9905,6.9905,6.9905,6.9905,6.9905,6.9905,6.9905,6.9905,6.9905,6.9905,6.9905,6.9905,6.9905,6.9905,6.9905,6.9905,6.9905,6.9905,6.9905,6.9905,6.9905,6.9905,6.9905,6.9905,6.9905,6.9905,6.9905,6.9905,6.9905,6.9905,6.9905,6.9905,6.9905,6.9905,6.9905,6.9905,6.9905,6.9905,6.9905,6.9905,6.9905,6.9905,6.9905,6.9905,6.9905,6.9905,6.9905,6.9905,6.9905,6.9905,6.9905,6.9905,6.9905,6.9905,6.9905,6.9905,6.9905,6.9905,6.9905,6.9905,6.9905,6.9905,6.9905,6.9905,6.9905,6.9905,6.9905,6.9905,6.9905,6.9905,6.9905,6.9905,6.9905,6.9905,6.9905,6.9905,6.9905,6.9905,6.9905,6.9905,6.9905,6.9905,6.9905,6.9905,6.9905,6.9905,6.9905,6.9905,6.9905,6.9905,6.9905,6.9905,6.9905,6.9905,6.9905,6.9905,6.9905,6.9905,6.9905,6.9905,6.9905,6.9905,6.9905,6.9905,6.9905,6.9905,6.9905,6.9905,6.9905,6.9905,6.9905,6.9905,6.9905,6.9905,6.9905,6.9905,6.9905,6.9905,6.9905,6.9905,6.9905,6.9905,6.9905,6.9905,6.9905,6.9905,6.9905,6.9905,6.9905,6.9905,6.9905,6.9905,6.9905,6.9905,6.9905,6.9905,6.9905,6.9905,6.9905,6.9905,6.9905,6.9905,6.9905,6.9905,6.9905,6.9905,6.9905,6.9905,6.9905,6.9905,6.9905,6.9905,6.9905,6.9905,6.9905,6.9905,6.9905,6.9905,6.9905,6.9905,6.9905,6.9905,6.9905,6.9905,6.9905,6.9905,6.9905,6.9905,6.9905,6.9905,6.9905,6.9905,6.9905,6.9905,6.9905,6.9905,6.9905,6.9905,6.9905,6.9905,6.9905,6.9905,6.9905,6.9905,6.9905,6.9905,6.9905,6.9905,6.9905,6.9905,6.9905,6.9905,6.9905,6.9905,6.9905,6.9905,6.9905,6.9905,6.9905,6.9905,6.9905,6.9905,6.9905,6.9905,6.9905,6.9905,6.9905,6.9905,6.9905,6.9905,6.9905,6.9905,6.9905,6.9905,6.9905,6.9905,6.9905,6.9905,6.9905,6.9905,6.9905,6.9905,6.9905,6.9905,6.9905,6.9905,6.9905,6.9905,6.9905,6.9905,6.9905,6.9905,6.9905,6.9905,6.9905,6.9905,6.9905,6.9905,6.9905,6.9905,6.9905,6.9905,6.9905,6.9905,6.9905,6.9905,6.9905,6.9905,6.9905,6.9905,6.9905,6.9905,6.9905,6.9905,6.9905,6.9905,6.9905,6.9905,6.9905,6.9905,6.9905,6.9905,6.9905,6.9905,6.9905,6.9905,6.9905,6.7797,6.7715,6.7630,6.7565,6.7495,6.7419,6.7351,6.7286,6.7211,6.7146,6.7071,6.7007,6.6932,6.6868,6.6794,6.6725,6.6664,6.6595,6.6527,6.6453,6.6419,6.6390,6.6369,6.6340,6.6322,6.6293,6.6275,6.6251,6.6222,6.6199,6.6175,6.6152,6.6131,6.6113,6.6084,6.6066,6.6040,6.6017,6.5993,6.5975,6.5947,6.5926,6.5898,6.5872,6.5841,6.5815,6.5789,6.5766,6.5735,6.5709,6.5684,6.5658,6.5637,6.5607,6.5581,6.5558,6.5532,6.5507,6.5486,6.5456,6.5430,6.5410,6.5384,6.5356,6.5331,6.5308,6.5301,6.5285,6.5278,6.5268,6.5247,6.5232,6.5222,6.5204,6.5194,6.5176,6.5161,6.5154,6.5133,6.5126,6.5106,6.5098,6.5083,6.5070,6.5050,6.5043,6.5025,6.5017,6.5007,6.4995,6.4977,6.4970,6.4957,6.4947,6.4924,6.4909,6.4887,6.4872,6.4854,6.4834,6.4817,6.4792,6.4779,6.4754,6.4742,6.4722,6.4704,6.4684,6.4662,6.4642,6.4627,6.4602,6.4582,6.4560,6.4520,6.4486,6.4446,6.4411,6.4372,6.4337,6.4308,6.4273,6.4234,6.4197,6.4156,6.4114,6.4014,6.3865,6.3717,6.3580,6.3438,6.3297,6.3157,6.2527,6.2436,6.2345,6.2255,6.2163,6.2074,6.1982,6.1891,6.1802,6.1713,6.1625,6.1535,6.1447,6.1397,6.1377,6.1357
6.9850,6.9850,6.9850,6.9850,6.9850,6.9850,6.9850,6.9850,6.9850,6.9850,6.9850,6.9850,6.9850,6.9850,6.9850,6.9850,6.9850,6.9850,6.9850,6.9850,6.9850,6.9850,6.9850,6.9850,6.9850,6.9850,6.9850,6.9850,6.9850,6.9850,6.9850,6.9850,6.9850,6.9850,6.9850,6.9850,6.9850,6.9850,6.9850,6.9850,6.9850,6.9850,6.9850,6.9850,6.9850,6.9850,6.9850,6.9850,6.9850,6.9850,6.9850,6.9850,6.9850,6.9850,6.9850,6.9850,6.9850,6.9850,6.9850,6.9850,6.9850,6.9850,6.9850,6.9850,6.9850,6.9850,6.9850,6.9850,6.9850,6.9850,6.9850,6.9850,6.9850,6.9850,6.9850,6.9850,6.9850,6.9850,6.9850,6.9850,6.9850,6.9850,6.9850,6.9850,6.9850,6.9850,6.9850,6.9850,6.9850,6.9850,6.9850,6.9850,6.9850,6.9850,6.9850,6.9850,6.9850,6.9850,6.9850,6.9850,6.9850,6.9850,6.9850,6.9850,6.9850,6.9850,6.9850,6.9850,6.9850,6.9850,6.9850,6.9850,6.9850,6.9850,6.9850,6.9850,6.9850,6.9850,6.9850,6.9850,6.9850,6.9850,6.9850,6.9850,6.9850,6.9850,6.9850,6.9850,6.9850,6.9850,6.9850,6.9850,6.9850,6.9850,6.9850,6.9850,6.9850,6.9850,6.9850,6.9850,6.9850,6.9850,6.9850,6.9850,6.9850,6.9850,6.9850,6.9850,6.9850,6.9850,6.9850,6.9850,6.9850,6.9850,6.9850,6.9850,6.9850,6.9850,6.9850,6.9850,6.9850,6.9850,6.9850,6.9850,6.9850,6.9850,6.9850,6.9850,6.9850,6.9850,6.9850,6.9850,6.9850,6.9850,6.9850,6.9850,6.9850,6.9850,6.9850,6.9850,6.9850,6.9850,6.9850,6.9850,6.9850,6.9850,6.9850,6.9850,6.9850,6.9850,6.9850,6.9850,6.9850,6.9850,6.9850,6.9850,6.9850,6.9850,6.9850,6.9850,6.9850,6.9850,6.9850,6.9850,6.9850,6.9850,6.9850,6.9850,6.9850,6.9850,6.9850,6.9850,6.9850,6.9850,6.9850,6.9850,6.9850,6.9850,6.9850,6.9850,6.9850,6.9850,6.9850,6.9850,6.9850,6.9850,6.9850,6.9850,6.9850,6.9850,6.9850,6.9850,6.9850,6.9850,6.9850,6.9850,6.9850,6.9850,6.9850,6.9850,6.9850,6.9850,6.9850,6.9850,6.9850,6.9850,6.9850,6.9850,6.9850,6.9850,6.9850,6.9850,6.9850,6.9850,6.9850,6.9850,6.9850,6.9850,6.9850,6.9850,6.9850,6.9850,6.9850,6.9850,6.9850,6.9850,6.9850,6.9850,6.9850,6.9850,6.9850,6.9850,6.9850,6.9850,6.9850,6.9850,6.9850,6.9850,6.7794,6.7723,6.7647,6.7582,6.7511,6.7440,6.7373,6.7303,6.7232,6.7157,6.7087,6.7018,6.6954,6.6884,6.6813,6.6744,6.6680,6.6606,6.6543,6.6474,6.6400,6.6382,6.6353,6.6335,6.6311,6.6288,6.6259,6.6241,6.6212,6.6188,6.6170,6.6147,6.6123,6.6103,6.6074,6.6051,6.6030,6.6012,6.5988,6.5962,6.5934,6.5903,6.5877,6.5851,6.5825,6.5797,6.5771,6.5751,6.5725,6.5697,6.5671,6.5643,6.5617,6.5591,6.5566,6.5540,6.5520,6.5492,6.5466,6.5441,6.5415,6.5390,6.5369,6.5344,6.5321,6.5290,6.5270,6.5250,6.5235,6.5222,6.5212,6.5199,6.5184,6.5166,6.5156,6.5144,6.5128,6.5111,6.5098,6.5083,6.5070,6.5060,6.5048,6.5028,6.5020,6.5007,6.4990,6.4982,6.4965,6.4957,6.4947,6.4929,6.4917,6.4897,6.4879,6.4859,6.4842,6.4827,6.4807,6.4784,6.4764,6.4747,6.4732,6.4709,6.4694,6.4672,6.4657,6.4640,6.4615,6.4600,6.4580,6.4555,6.4530,6.4491,6.4456,6.4411,6.4374,6.4345,6.4310,6.4271,6.4241,6.4207,6.4163,6.4124,6.4077,6.3987,6.3839,6.3691,6.3544,6.3405,6.3261,6.3121,6.2578,6.2487,6.2394,6.2304,6.2214,6.2124,6.2032,6.1943,6.1854,6.1765,6.1677,6.1589,6.1498,6.1431,6.1411,6.1391
6.9803,6.9803,6.9803,6.9803,6.9803,6.9803,6.9803,6.9803,6.9803,6.9803,6.9803,6.9803,6.9803,6.9803,6.9803,6.9803,6.9803,6.9803,6.9803,6.9803,6.9803,6.9803,6.9803,6.9803,6.9803,6.9803,6.9803,6.9803,6.9803,6.9803,6.9803,6.9803,6.9803,6.9803,6.9803,6.9803,6.9803,6.9803,6.9803,6.9803,6.9803,6.9803,6.9803,6.9803,6.9803,6.9803,6.9803,6.9803,6.9803,6.9803,6.9803,6.9803,6.9803,6.9803,6.9803,6.9803,6.9803,6.9803,6.9803,6.9803,6.9803,6.9803,6.9803,6.9803,6.9803,6.9803,6.9803,6.9803,6.9803,6.9803,6.9803,6.9803,6.9803,6.9803,6.9803,6.9803,6.9803,6.9803,6.9803,6.9803,6.9803,6.9803,6.9803,6.9803,6.9803,6.9803,6.9803,6.9803,6.9803,6.9803,6.9803,6.9803,6.9803,6.9803,6.9803,6.9803,6.9803,6.9803,6.9803,6.9803,6.9803,6.9803,6.9803,6.9803,6.9803,6.9803,6.9803,6.9803,6.9803,6.9803,6.9803,6.9803,6.9803,6.9803,6.9803,6.9803,6.9803,6.9803,6.9803,6.9803,6.9803,6.9803,6.9803,6.9803,6.9803,6.9803,6.9803,6.9803,6.9803,6.9803,6.9803,6.9803,6.9803,6.9803,6.9803,6.9803,6.9803,6.9803,6.9803,6.9803,6.9803,6.9803,6.9803,6.9803,6.9803,6.9803,6.9803,6.9803,6.9803,6.9803,6.9803,6.9803,6.9803,6.9803,6.9803,6.9803,6.9803,6.9803,6.9803,6.9803,6.9803,6.9803,6.9803,6.9803,6.9803,6.9803,6.9803,6.9803,6.9803,6.9803,6.9803,6.9803,6.9803,6.9803,6.9803,6.9803,6.9803,6.9803,6.9803,6.9803,6.9803,6.9803,6.9803,6.9803,6.9803,6.9803,6.9803,6.9803,6.9803,6.9803,6.9803,6.9803,6.9803,6.9803,6.9803,6.9803,6.9803,6.9803,6.9803,6.9803,6.9803,6.9803,6.9803,6.9803,6.9803,6.9803,6.9803,6.9803,6.9803,6.9803,6.9803,6.9803,6.9803,6.9803,6.9803,6.9803,6.9803,6.9803,6.9803,6.9803,6.9803,6.9803,6.9803,6.9803,6.9803,6.9803,6.9803,6.9803,6.9803,6.9803,6.9803,6.9803,6.9803,6.9803,6.9803,6.9803,6.9803,6.9803,6.9803,6.9803,6.9803,6.9803,6.9803,6.9803,6.9803,6.9803,6.9803,6.9803,6.9803,6.9803,6.9803,6.9803,6.9803,6.9803,6.9803,6.9803,6.9803,6.9803,6.9803,6.9803,6.9803,6.9803,6.9803,6.9803,6.9803,6.9803,6.9803,6.9803,6.9803,6.9803,6.9803,6.9803,6.9803,6.9803,6.9803,6.9803,6.9803,6.9803,6.9803,6.9803,6.7734,6.7658,6.7592,6.7516,6.7451,6.7384,6.7313,6.7238,6.7173,6.7098,6.7034,6.6962,6.6898,6.6823,6.6754,6.6691,6.6616,6.6553,6.6487,6.6414,6.6364,6.6343,6.6319,6.6301,6.6277,6.6254,6.6225,6.6207,6.6178,6.6160,6.6131,6.6108,6.6087,6.6069,6.6045,6.6022,6.5999,6.5967,6.5944,6.5913,6.5892,6.5861,6.5833,6.5807,6.5787,6.5756,6.5730,6.5702,6.5681,6.5650,6.5625,6.5607,6.5576,6.5555,6.5525,6.5504,6.5479,6.5448,6.5430,6.5405,6.5374,6.5354,6.5323,6.5306,6.5275,6.5252,6.5219,6.5199,6.5184,6.5171,6.5156,6.5149,6.5133,6.5116,6.5101,6.5093,6.5078,6.5065,6.5050,6.5033,6.5022,6.5010,6.4995,6.4982,6.4965,6.4957,6.4945,6.4934,6.4917,6.4904,6.4889,6.4874,6.4857,6.4837,6.4814,6.4794,6.4782,6.4762,6.4739,6.4724,6.4702,6.4687,6.4669,6.4650,6.4625,6.4607,6.4587,6.4567,6.4548,6.4533,6.4501,6.4461,6.4421,6.4387,6.4342,6.4313,6.4273,6.4244,6.4210,6.4173,6.4126,6.4089,6.4043,6.3960,6.3812,6.3664,6.3515,6.3366,6.3223,6.3083,6.2629,6.2536,6.2445,6.2355,6.2265,6.2175,6.2085,6.1996,6.1907,6.1818,6.1729,6.1641,6.1550,6.1465,6.1444,6.1424
6.9748,6.9748,6.9748,6.9748,6.9748,6.9748,6.9748,6.9748,6.9748,6.9748,6.9748,6.9748,6.9748,6.9748,6.9748,6.9748,6.9748,6.9748,6.9748,6.9748,6.9748,6.9748,6.9748,6.9748,6.9748,6.9748,6.9748,6.9748,6.9748,6.9748,6.9748,6.9748,6.9748,6.9748,6.9748,6.9748,6.9748,6.9748,6.9748,6.9748,6.9748,6.9748,6.9748,6.9748,6.9748,6.9748,6.9748,6.9748,6.9748,6.9748,6.9748,6.9748,6.9748,6.9748,6.9748,6.9748,6.9748,6.9748,6.9748,6.9748,6.9748,6.9748,6.9748,6.9748,6.9748,6.9748,6.9748,6.9748,6.9748,6.9748,6.9748,6.9748,6.9748,6.9748,6.9748,6.9748,6.9748,6.9748,6.9748,6.9748,6.9748,6.9748,6.9748,6.9748,6.9748,6.9748,6.9748,6.9748,6.9748,6.9748,6.9748,6.9748,6.9748,6.9748,6.9748,6.9748,6.9748,6.9748,6.9748,6.9748,6.9748,6.9748,6.9748,6.9748,6.9748,6.9748,6.9748,6.9748,6.9748,6.9748,6.9748,6.9748,6.9748,6.9748,6.9748,6.9748,6.9748,6.9748,6.9748,6.9748,6.9748,6.9748,6.9748,6.9748,6.9748,6.9748,6.9748,6.9748,6.9748,6.9748,6.9748,6.9748,6.9748,6.9748,6.9748,6.9748,6.9748,6.9748,6.9748,6.9748,6.9748,6.9748,6.9748,6.9748,6.9748,6.9748,6.9748,6.9748,6.9748,6.9748,6.9748,6.9748,6.9748,6.9748,6.9748,6.9748,6.9748,6.9748,6.9748,6.9748,6.9748,6.9748,6.9748,6.9748,6.9748,6.9748,6.9748,6.9748,6.9748,6.9748,6.9748,6.9748,6.9748,6.9748,6.9748,6.9748,6.9748,6.9748,6.9748,6.9748,6.9748,6.9748,6.9748,6.9748,6.9748,6.9748,6.9748,6.9748,6.9748,6.9748,6.9748,6.9748,6.9748,6.9748,6.9748,6.9748,6.9748,6.9748,6.9748,6.9748,6.9748,6.9748,6.9748,6.9748,6.9748,6.9748,6.9748,6.9748,6.9748,6.9748,6.9748,6.9748,6.9748,6.9748,6.9748,6.9748,6.9748,6.9748,6.9748,6.9748,6.9748,6.9748,6.9748,6.9748,6.9748,6.9748,6.9748,6.9748,6.9748,6.9748,6.9748,6.9748,6.9748,6.9748,6.9748,6.9748,6.9748,6.9748,6.9748,6.9748,6.9748,6.9748,6.9748,6.9748,6.9748,6.9748,6.9748,6.9748,6.9748,6.9748,6.9748,6.9748,6.9748,6.9748,6.9748,6.9748,6.9748,6.9748,6.9748,6.9748,6.9748,6.9748,6.9748,6.9748,6.9748,6.9748,6.9748,6.9748,6.9748,6.9748,6.9748,6.9748,6.9748,6.9748,6.9748,6.9748,6.9748,6.9748,6.9748,6.9748,6.9748,6.7737,6.7671,6.7601,6.7530,6.7457,6.7386,6.7321,6.7246,6.7176,6.7106,6.7045,6.6975,6.6900,6.6831,6.6767,6.6698,6.6627,6.6561,6.6495,6.6429,6.6369,6.6335,6.6306,6.6283,6.6264,6.6238,6.6215,6.6196,6.6168,6.6144,6.6126,6.6103,6.6077,6.6053,6.6030,6.6004,6.5975,6.5955,6.5929,6.5903,6.5869,6.5849,6.5818,6.5797,6.5766,6.5738,6.5717,6.5686,6.5661,6.5640,6.5614,6.5584,6.5561,6.5540,6.5515,6.5489,6.5458,6.5438,6.5415,6.5384,6.5364,6.5334,6.5313,6.5283,6.5255,6.5227,6.5204,6.5176,6.5146,6.5138,6.5118,6.5106,6.5091,6.5078,6.5068,6.5050,6.5035,6.5028,6.5007,6.5000,6.4985,6.4967,6.4957,6.4945,6.4932,6.4917,6.4904,6.4897,6.4879,6.4867,6.4844,6.4824,6.4807,6.4787,6.4769,6.4754,6.4737,6.4712,6.4694,6.4679,6.4657,6.4637,6.4622,6.4597,6.4585,6.4565,6.4545,6.4520,6.4501,6.4476,6.4436,6.4397,6.4357,6.4310,6.4281,6.4246,6.4212,6.4178,6.4134,6.4094,6.4053,6.4009,6.3933,6.3785,6.3638,6.3489,6.3340,6.3190,6.3048,6.2678,6.2587,6.2496,6.2403,6.2315,6.2225,6.2138,6.2048,6.1959,6.1870,6.1781,6.1693,6.1602,6.1514,6.1480,6.1460
6.9693,6.9693,6.9693,6.9693,6.9693,6.9693,6.9693,6.9693,6.9693,6.9693,6.9693,6.9693,6.9693,6.9693,6.9693,6.9693,6.9693,6.9693,6.9693,6.9693,6.9693,6.9693,6.9693,6.9693,6.9693,6.9693,6.9693,6.9693,6.9693,6.9693,6.9693,6.9693,6.9693,6.9693,6.9693,6.9693,6.9693,6.9693,6.9693,6.9693,6.9693,6.9693,6.9693,6.9693,6.9693,6.9693,6.9693,6.9693,6.9693,6.9693,6.9693,6.9693,6.9693,6.9693,6.9693,6.9693,6.9693,6.9693,6.9693,6.9693,6.9693,6.9693,6.9693,6.9693,6.9693,6.9693,6.9693,6.9693,6.9693,6.9693,6.9693,6.9693,6.9693,6.9693,6.9693,6.9693,6.9693,6.9693,6.9693,6.9693,6.9693,6.9693,6.9693,6.9693,6.9693,6.9693,6.9693,6.9693,6.9693,6.9693,6.9693,6.9693,6.9693,6.9693,6.9693,6.9693,6.9693,6.9693,6.9693,6.9693,6.9693,6.9693,6.9693,6.9693,6.9693,6.9693,6.9693,6.9693,6.9693,6.9693,6.9693,6.9693,6.9693,6.9693,6.9693,6.9693,6.9693,6.9693,6.9693,6.9693,6.9693,6.9693,6.9693,6.9693,6.9693,6.9693,6.9693,6.9693,6.9693,6.9693,6.9693,6.9693,6.9693,6.9693,6.9693,6.9693,6.9693,6.9693,6.9693,6.9693,6.9693,6.9693,6.9693,6.9693,6.9693,6.9693,6.9693,6.9693,6.9693,6.9693,6.9693,6.9693,6.9693,6.9693,6.9693,6.9693,6.9693,6.9693,6.9693,6.9693,6.9693,6.9693,6.9693,6.9693,6.9693,6.9693,6.9693,6.9693,6.9693,6.9693,6.9693,6.9693,6.9693,6.9693,6.9693,6.9693,6.9693,6.9693,6.9693,6.9693,6.9693,6.9693,6.9693,6.9693,6.9693,6.9693,6.9693,6.9693,6.9693,6.9693,6.9693,6.9693,6.9693,6.9693,6.9693,6.9693,6.9693,6.9693,6.9693,6.9693,6.9693,6.9693,6.9693,6.9693,6.9693,6.9693,6.9693,6.9693,6.9693,6.9693,6.9693,6.9693,6.9693,6.9693,6.9693,6.9693,6.9693,6.9693,6.9693,6.9693,6.9693,6.9693,6.9693,6.9693,6.9693,6.9693,6.9693,6.9693,6.9693,6.9693,6.9693,6.9693,6.9693,6.9693,6.9693,6.9693,6.9693,6.9693,6.9693,6.9693,6.9693,6.9693,6.9693,6.9693,6.9693,6.9693,6.9693,6.9693,6.9693,6.9693,6.9693,6.9693,6.9693,6.9693,6.9693,6.9693,6.9693,6.9693,6.9693,6.9693,6.9693,6.9693,6.9693,6.9693,6.9693,6.9693,6.9693,6.9693,6.9693,6.9693,6.9693,6.9693,6.9693,6.9693,6.9693,6.9693,6.9693,6.9693,6.9693,6.9693,6.9693,6.9693,6.9693,6.7674,6.7606,6.7541,6.7465,6.7394,6.7324,6.7254,6.7189,6.7122,6.7047,6.6983,6.6914,6.6839,6.6775,6.6706,6.6643,6.6574,6.6514,6.6448,6.6377,6.6319,6.6301,6.6272,6.6249,6.6225,6.6207,6.6183,6.6157,6.6134,6.6116,6.6092,6.6066,6.6040,6.6017,6.5986,6.5960,6.5939,6.5911,6.5885,6.5859,6.5833,6.5807,6.5779,6.5753,6.5727,6.5697,6.5671,6.5645,6.5625,6.5599,6.5568,6.5545,6.5525,6.5499,6.5474,6.5443,6.5420,6.5395,6.5374,6.5349,6.5318,6.5293,6.5263,6.5240,6.5209,6.5187,6.5159,6.5131,6.5098,6.5085,6.5073,6.5053,6.5045,6.5030,6.5017,6.5002,6.4985,6.4975,6.4962,6.4947,6.4934,6.4919,6.4904,6.4897,6.4879,6.4867,6.4859,6.4842,6.4817,6.4804,6.4779,6.4762,6.4742,6.4724,6.4709,6.4692,6.4672,6.4647,6.4630,6.4610,6.4590,6.4570,6.4558,6.4533,6.4518,6.4493,6.4478,6.4441,6.4402,6.4362,6.4323,6.4286,6.4244,6.4210,6.4180,6.4146,6.4097,6.4058,6.4014,6.3972,6.3907,6.3759,6.3611,6.3462,6.3314,6.3161,6.3015,6.2873,6.2638,6.2545,6.2457,6.2366,6.2278,6.2188,6.2101,6.2012,6.1923,6.1834,6.1745,6.1659,6.1566,6.1514,6.1494
6.9633,6.9633,6.9633,6.9633,6.9633,6.9633,6.9633,6.9633,6.9633,6.9633,6.9633,6.9633,6.9633,6.9633,6.9633,6.9633,6.9633,6.9633,6.9633,6.9633,6.9633,6.9633,6.9633,6.9633,6.9633,6.9633,6.9633,6.9633,6.9633,6.9633,6.9633,6.9633,6.9633,6.9633,6.9633,6.9633,6.9633,6.9633,6.9633,6.9633,6.9633,6.9633,6.9633,6.9633,6.9633,6.9633,6.9633,6.9633,6.9633,6.9633,6.9633,6.9633,6.9633,6.9633,6.9633,6.9633,6.9633,6.9633,6.9633,6.9633,6.9633,6.9633,6.9633,6.9633,6.9633,6.9633,6.9633,6.9633,6.9633,6.9633,6.9633,6.9633,6.9633,6.9633,6.9633,6.9633,6.9633,6.9633,6.9633,6.9633,6.9633,6.9633,6.9633,6.9633,6.9633,6.9633,6.9633,6.9633,6.9633,6.9633,6.9633,6.9633,6.9633,6.9633,6.9633,6.9633,6.9633,6.9633,6.9633,6.9633,6.9633,6.9633,6.9633,6.9633,6.9633,6.9633,6.9633,6.9633,6.9633,6.9633,6.9633,6.9633,6.9633,6.9633,6.9633,6.9633,6.9633,6.9633,6.9633,6.9633,6.9633,6.9633,6.9633,6.9633,6.9633,6.9633,6.9633,6.9633,6.9633,6.9633,6.9633,6.9633,6.9633,6.9633,6.9633,6.9633,6.9633,6.9633,6.9633,6.9633,6.9633,6.9633,6.9633,6.9633,6.9633,6.9633,6.9633,6.9633,6.9633,6.9633,6.9633,6.9633,6.9633,6.9633,6.9633,6.9633,6.9633,6.9633,6.9633,6.9633,6.9633,6.9633,6.9633,6.9633,6.9633,6.9633,6.9633,6.9633,6.9633,6.9633,6.9633,6.9633,6.9633,6.9633,6.9633,6.9633,6.9633,6.9633,6.9633,6.9633,6.9633,6.9633,6.9633,6.9633,6.9633,6.9633,6.9633,6.9633,6.9633,6.9633,6.9633,6.9633,6.9633,6.9633,6.9633,6.9633,6.9633,6.9633,6.9633,6.9633,6.9633,6.9633,6.9633,6.9633,6.9633,6.9633,6.9633,6.9633,6.9633,6.9633,6.9633,6.9633,6.9633,6.9633,6.9633,6.9633,6.9633,6.9633,6.9633,6.9633,6.9633,6.9633,6.9633,6.9633,6.9633,6.9633,6.9633,6.9633,6.9633,6.9633,6.9633,6.9633,6.9633,6.9633,6.9633,6.9633,6.9633,6.9633,6.9633,6.9633,6.9633,6.9633,6.9633,6.9633,6.9633,6.9633,6.9633,6.9633,6.9633,6.9633,6.9633,6.9633,6.9633,6.9633,6.9633,6.9633,6.9633,6.9633,6.9633,6.9633,6.9633,6.9633,6.9633,6.9633,6.9633,6.9633,6.9633,6.9633,6.9633,6.9633,6.9633,6.9633,6.9633,6.9633,6.9633,6.9633,6.9633,6.9633,6.9633,6.9633,6.9633,6.9633,6.9633,6.9633,6.7685,6.7614,6.7543,6.7478,6.7402,6.7338,6.7270,6.7195,6.7130,6.7061,6.6991,6.6919,6.6855,6.6791,6.6725,6.6659,6.6587,6.6521,6.6456,6.6390,6.6330,6.6285,6.6262,6.6238,6.6220,6.6196,6.6168,6.6149,6.6123,6.6100,6.6082,6.6053,6.6027,6.6001,6.5975,6.5947,6.5921,6.5895,6.5869,6.5843,6.5815,6.5789,6.5758,6.5733,6.5709,6.5681,6.5655,6.5635,6.5604,6.5579,6.5561,6.5535,6.5504,6.5479,6.5458,6.5433,6.5405,6.5379,6.5359,6.5334,6.5301,6.5273,6.5245,6.5222,6.5194,6.5166,6.5138,6.5111,6.5080,6.5058,6.5030,6.5020,6.5002,6.4992,6.4975,6.4960,6.4947,6.4937,6.4924,6.4904,6.4892,6.4879,6.4867,6.4859,6.4844,6.4829,6.4809,6.4797,6.4777,6.4754,6.4739,6.4719,6.4697,6.4677,6.4664,6.4640,6.4625,6.4602,6.4582,6.4567,6.4548,6.4530,6.4510,6.4486,6.4466,6.4451,6.4411,6.4372,6.4337,6.4293,6.4251,6.4217,6.4183,6.4148,6.4104,6.4065,6.4021,6.3980,6.3936,6.3880,6.3732,6.3585,6.3433,6.3285,6.3135,6.2986,6.2838,6.2688,6.2599,6.2508,6.2420,6.2329,6.2242,6.2152,6.2064,6.1975,6.1886,6.1797,6.1709,6.1618,6.1548,6.1528
6.9584,6.9584,6.9584,6.9584,6.9584,6.9584,6.9584,6.9584,6.9584,6.9584,6.9584,6.9584,6.9584,6.9584,6.9584,6.9584,6.9584,6.9584,6.9584,6.9584,6.9584,6.9584,6.9584,6.9584,6.9584,6.9584,6.9584,6.9584,6.9584,6.9584,6.9584,6.9584,6.9584,6.9584,6.9584,6.9584,6.9584,6.9584,6.9584,6.9584,6.9584,6.9584,6.9584,6.9584,6.9584,6.9584,6.9584,6.9584,6.9584,6.9584,6.9584,6.9584,6.9584,6.9584,6.9584,6.9584,6.9584,6.9584,6.9584,6.9584,6.9584,6.9584,6.9584,6.9584,6.9584,6.9584,6.9584,6.9584,6.9584,6.9584,6.9584,6.9584,6.9584,6.9581,6.9581,6.9581,6.9581,6.9581,6.9581,6.9581,6.9581,6.9581,6.9581,6.9581,6.9581,6.9581,6.9581,6.9581,6.9581,6.9581,6.9581,6.9581,6.9581,6.9581,6.9581,6.9581,6.9581,6.9581,6.9581,6.9581,6.9581,6.9581,6.9581,6.9581,6.9581,6.9581,6.9581,6.9581,6.9581,6.9581,6.9581,6.9581,6.9581,6.9581,6.9581,6.9581,6.9581,6.9581,6.9581,6.9581,6.9581,6.9581,6.9581,6.9581,6.9581,6.9581,6.9581,6.9581,6.9581,6.9581,6.9581,6.9581,6.9581,6.9581,6.9581,6.9581,6.9581,6.9581,6.9581,6.9581,6.9581,6.9581,6.9581,6.9581,6.9581,6.9581,6.9581,6.9581,6.9581,6.9581,6.9581,6.9581,6.9581,6.9581,6.9581,6.9581,6.9581,6.9581,6.9581,6.9581,6.9581,6.9581,6.9581,6.9581,6.9581,6.9581,6.9581,6.9581,6.9581,6.9581,6.9581,6.9581,6.9581,6.9581,6.9581,6.9581,6.9581,6.9581,6.9581,6.9581,6.9581,6.9581,6.9581,6.9581,6.9581,6.9581,6.9581,6.9581,6.9581,6.9581,6.9581,6.9581,6.9581,6.9581,6.9581,6.9581,6.9581,6.9581,6.9581,6.9581,6.9581,6.9581,6.9581,6.9581,6.9581,6.9581,6.9581,6.9581,6.9581,6.9581,6.9581,6.9581,6.9581,6.9581,6.9581,6.9581,6.9581,6.9581,6.9581,6.9581,6.9581,6.9581,6.9581,6.9581,6.9581,6.9581,6.9581,6.9581,6.9581,6.9581,6.9581,6.9581,6.9581,6.9581,6.9581,6.9581,6.9581,6.9581,6.9581,6.9581,6.9581,6.9581,6.9581,6.9581,6.9581,6.9581,6.9581,6.9581,6.9581,6.9581,6.9581,6.9581,6.9581,6.9581,6.9581,6.9581,6.9581,6.9581,6.9581,6.9581,6.9581,6.9581,6.9581,6.9581,6.9581,6.9581,6.9581,6.9581,6.9581,6.9581,6.9581,6.9581,6.9581,6.9581,6.9581,6.9581,6.9581,6.9581,6.9581,6.9581,6.9581,6.9581,6.9581,6.9581,6.9581,6.9581,6.7628,6.7557,6.7486,6.7416,6.7348,6.7273,6.7203,6.7138,6.7066,6.6999,6.6938,6.6871,6.6805,6.6733,6.6672,6.6601,6.6540,6.6469,6.6408,6.6343,6.6280,6.6256,6.6233,6.6209,6.6181,6.6157,6.6136,6.6113,6.6090,6.6064,6.6032,6.6006,6.5983,6.5957,6.5926,6.5905,6.5874,6.5846,6.5820,6.5799,6.5771,6.5740,6.5715,6.5694,6.5666,6.5645,6.5614,6.5594,6.5568,6.5545,6.5520,6.5494,6.5463,6.5438,6.5415,6.5395,6.5364,6.5339,6.5311,6.5285,6.5252,6.5224,6.5202,6.5174,6.5149,6.5116,6.5088,6.5060,6.5038,6.5005,6.4985,6.4965,6.4955,6.4937,6.4927,6.4909,6.4894,6.4887,6.4867,6.4859,6.4847,6.4837,6.4824,6.4802,6.4784,6.4764,6.4744,6.4727,6.4712,6.4689,6.4674,6.4652,6.4632,6.4617,6.4597,6.4580,6.4555,6.4540,6.4515,6.4503,6.4483,6.4463,6.4444,6.4424,6.4382,6.4342,6.4303,6.4264,6.4227,6.4187,6.4151,6.4116,6.4070,6.4031,6.3987,6.3943,6.3902,6.3853,6.3705,6.3558,6.3407,6.3257,6.3109,6.2960,6.2812,6.2732,6.2650,6.2561,6.2471,6.2383,6.2292,6.2205,6.2117,6.2028,6.1938,6.1850,6.1761,6.1672,6.1582,6.1562
6.9532,6.9532,6.9532,6.9532,6.9532,6.9532,6.9532,6.9532,6.9532,6.9532,6.9532,6.9532,6.9532,6.9532,6.9532,6.9532,6.9532,6.9532,6.9532,6.9532,6.9532,6.9532,6.9532,6.9532,6.9532,6.9532,6.9532,6.9532,6.9532,6.9532,6.9532,6.9532,6.9532,6.9532,6.9532,6.9532,6.9532,6.9532,6.9532,6.9532,6.9532,6.9532,6.9532,6.9532,6.9532,6.9532,6.9532,6.9532,6.9532,6.9532,6.9532,6.9532,6.9532,6.9532,6.9532,6.9532,6.9532,6.9532,6.9532,6.9532,6.9532,6.9532,6.9532,6.9532,6.9532,6.9532,6.9532,6.9532,6.9532,6.9532,6.9532,6.9532,6.9532,6.9532,6.9532,6.9532,6.9532,6.9532,6.9532,6.9532,6.9532,6.9532,6.9532,6.9532,6.9532,6.9532,6.9532,6.9532,6.9532,6.9532,6.9532,6.9532,6.9532,6.9532,6.9532,6.9532,6.9532,6.9532,6.9532,6.9532,6.9532,6.9532,6.9532,6.9532,6.9532,6.9532,6.9532,6.9532,6.9532,6.9532,6.9532,6.9532,6.9532,6.9532,6.9532,6.9532,6.9532,6.9532,6.9532,6.9532,6.9532,6.9532,6.9532,6.9532,6.9532,6.9532,6.9532,6.9532,6.9532,6.9532,6.9532,6.9532,6.9532,6.9532,6.9532,6.9532,6.9532,6.9532,6.9532,6.9532,6.9532,6.9532,6.9532,6.9532,6.9532,6.9532,6.9532,6.9532,6.9532,6.9532,6.9532,6.9532,6.9532,6.9532,6.9532,6.9532,6.9532,6.9532,6.9532,6.9532,6.9532,6.9532,6.9532,6.9532,6.9532,6.9532,6.9532,6.9532,6.9532,6.9532,6.9532,6.9532,6.9532,6.9532,6.9532,6.9532,6.9532,6.9532,6.9532,6.9532,6.9532,6.9532,6.9532,6.9532,6.9532,6.9532,6.9532,6.9532,6.9532,6.9532,6.9532,6.9532,6.9532,6.9532,6.9532,6.9532,6.9532,6.9532,6.9532,6.9532,6.9532,6.9532,6.9532,6.9532,6.9532,6.9532,6.9532,6.9532,6.9532,6.9532,6.9532,6.9532,6.9532,6.9532,6.9532,6.9532,6.9532,6.9532,6.9532,6.9532,6.9532,6.9532,6.9532,6.9532,6.9532,6.9532,6.9532,6.9532,6.9532,6.9532,6.9532,6.9532,6.9532,6.9532,6.9532,6.9532,6.9532,6.9532,6.9532,6.9532,6.9532,6.9532,6.9532,6.9532,6.9532,6.9532,6.9532,6.9532,6.9532,6.9532,6.9532,6.9532,6.9532,6.9532,6.9532,6.9532,6.9532,6.9532,6.9532,6.9532,6.9532,6.9532,6.9532,6.9532,6.9532,6.9532,6.9532,6.9532,6.9532,6.9532,6.9532,6.9532,6.9532,6.9532,6.9532,6.9532,6.9532,6.9532,6.9532,6.9532,6.9532,6.9532,6.9532,6.9532,6.9532,6.9532,6.9532,6.7630,6.7560,6.7492,6.7427,6.7351,6.7281,6.7214,6.7152,6.7079,6.7018,6.6946,6.6884,6.6813,6.6751,6.6685,6.6619,6.6553,6.6482,6.6421,6.6356,6.6285,6.6241,6.6217,6.6194,6.6175,6.6147,6.6121,6.6100,6.6074,6.6043,6.6022,6.5993,6.5962,6.5942,6.5913,6.5887,6.5856,6.5830,6.5807,6.5776,6.5751,6.5730,6.5699,6.5676,6.5655,6.5630,6.5599,6.5573,6.5550,6.5525,6.5499,6.5479,6.5448,6.5425,6.5400,6.5379,6.5351,6.5323,6.5296,6.5260,6.5232,6.5204,6.5179,6.5151,6.5123,6.5101,6.5073,6.5045,6.5015,6.4992,6.4960,6.4937,6.4912,6.4899,6.4884,6.4877,6.4859,6.4849,6.4832,6.4819,6.4812,6.4799,6.4774,6.4757,6.4742,6.4724,6.4704,6.4687,6.4662,6.4642,6.4630,6.4610,6.4585,6.4565,6.4548,6.4533,6.4513,6.4493,6.4471,6.4456,6.4431,6.4411,6.4392,6.4352,6.4318,6.4278,6.4232,6.4192,6.4158,6.4119,6.4080,6.4033,6.3989,6.3950,6.3909,6.3865,6.3824,6.3676,6.3529,6.3381,6.3230,6.3081,6.2934,6.2819,6.2756,6.2690,6.2613,6.2524,6.2434,6.2345,6.2258,6.2168,6.2080,6.1991,6.1902,6.1813,6.1722,6.1634,6.1598
6.9471,6.9471,6.9471,6.9471,6.9471,6.9471,6.9471,6.9471,6.9471,6.9471,6.9471,6.9471,6.9471,6.9471,6.9471,6.9471,6.9471,6.9471,6.9471,6.9471,6.9471,6.9471,6.9471,6.9471,6.9471,6.9471,6.9471,6.9471,6.9471,6.9471,6.9471,6.9471,6.9471,6.9471,6.9471,6.9471,6.9471,6.9471,6.9471,6.9471,6.9471,6.9471,6.9471,6.9471,6.9471,6.9471,6.9471,6.9471,6.9471,6.9471,6.9471,6.9471,6.9471,6.9471,6.9471,6.9471,6.9471,6.9471,6.9471,6.9471,6.9471,6.9471,6.9471,6.9471,6.9471,6.9471,6.9471,6.9471,6.9471,6.9471,6.9471,6.9471,6.9471,6.9471,6.9471,6.9471,6.9471,6.9471,6.9471,6.9471,6.9471,6.9471,6.9471,6.9471,6.9471,6.9471,6.9471,6.9471,6.9471,6.9471,6.9471,6.9471,6.9471,6.9471,6.9477,6.9477,6.9477,6.9477,6.9477,6.9477,6.9477,6.9477,6.9477,6.9477,6.9477,6.9477,6.9477,6.9477,6.9477,6.9477,6.9477,6.9477,6.9477,6.9477,6.9477,6.9477,6.9477,6.9477,6.9477,6.9477,6.9477,6.9477,6.9477,6.9477,6.9477,6.9477,6.9477,6.9477,6.9477,6.9477,6.9477,6.9477,6.9477,6.9477,6.9477,6.9477,6.9477,6.9477,6.9477,6.9477,6.9477,6.9477,6.9477,6.9477,6.9477,6.9477,6.9477,6.9477,6.9477,6.9477,6.9477,6.9477,6.9477,6.9477,6.9477,6.9477,6.9477,6.9477,6.9477,6.9477,6.9477,6.9477,6.9477,6.9477,6.9477,6.9477,6.9477,6.9477,6.9477,6.9477,6.9477,6.9477,6.9477,6.9477,6.9477,6.9477,6.9477,6.9477,6.9477,6.9477,6.9477,6.9477,6.9477,6.9477,6.9477,6.9477,6.9477,6.9477,6.9477,6.9477,6.9477,6.9477,6.9477,6.9477,6.9477,6.9477,6.9477,6.9477,6.9477,6.9477,6.9477,6.9477,6.9477,6.9477,6.9477,6.9477,6.9477,6.9477,6.9477,6.9477,6.9477,6.9477,6.9477,6.9477,6.9477,6.9477,6.9477,6.9477,6.9477,6.9477,6.9477,6.9477,6.9477,6.9477,6.9477,6.9477,6.9477,6.9477,6.9477,6.9477,6.9477,6.9477,6.9477,6.9477,6.9477,6.9477,6.9477,6.9477,6.9477,6.9477,6.9477,6.9477,6.9477,6.9477,6.9477,6.9477,6.9477,6.9477,6.9477,6.9477,6.9477,6.9477,6.9477,6.9477,6.9477,6.9477,6.9477,6.9477,6.9477,6.9477,6.9477,6.9477,6.9477,6.9477,6.9477,6.9477,6.9477,6.9477,6.9477,6.9477,6.9477,6.9477,6.9477,6.9477,6.9477,6.9477,6.9477,6.9477,6.9477,6.9477,6.9477,6.9477,6.9477,6.9477,6.9477,6.9477,6.9477,6.9477,6.9477,6.7571,6.7505,6.7435,6.7362,6.7300,6.7232,6.7160,6.7093,6.7026,6.6959,6.6892,6.6826,6.6765,6.6693,6.6627,6.6561,6.6500,6.6435,6.6364,6.6298,6.6238,6.6209,6.6188,6.6157,6.6136,6.6105,6.6079,6.6056,6.6025,6.6004,6.5973,6.5944,6.5923,6.5892,6.5867,6.5838,6.5818,6.5787,6.5761,6.5735,6.5715,6.5684,6.5666,6.5635,6.5609,6.5589,6.5561,6.5540,6.5515,6.5484,6.5463,6.5433,6.5410,6.5390,6.5362,6.5331,6.5298,6.5270,6.5242,6.5219,6.5192,6.5164,6.5131,6.5108,6.5083,6.5050,6.5028,6.5000,6.4972,6.4945,6.4914,6.4892,6.4867,6.4854,6.4839,6.4822,6.4812,6.4794,6.4787,6.4772,6.4754,6.4729,6.4717,6.4697,6.4674,6.4654,6.4635,6.4615,6.4602,6.4577,6.4563,6.4543,6.4525,6.4505,6.4486,6.4466,6.4444,6.4424,6.4409,6.4389,6.4367,6.4328,6.4283,6.4249,6.4202,6.4163,6.4124,6.4089,6.4043,6.4002,6.3958,6.3914,6.3873,6.3831,6.3788,6.3650,6.3503,6.3354,6.3204,6.3055,6.2906,6.2842,6.2779,6.2718,6.2650,6.2578,6.2487,6.2399,6.2308,6.2221,6.2131,6.2044,6.1954,6.1865,6.1774,6.1688,6.1634
6.9423,6.9423,6.9423,6.9423,6.9423,6.9423,6.9423,6.9423,6.9423,6.9423,6.9423,6.9423,6.9423,6.9423,6.9423,6.9423,6.9423,6.9423,6.9423,6.9423,6.9423,6.9423,6.9423,6.9423,6.9423,6.9423,6.9423,6.9423,6.9423,6.9423,6.9423,6.9423,6.9423,6.9423,6.9423,6.9423,6.9423,6.9423,6.9423,6.9423,6.9423,6.9423,6.9423,6.9423,6.9423,6.9423,6.9423,6.9423,6.9423,6.9423,6.9423,6.9423,6.9423,6.9423,6.9423,6.9423,6.9423,6.9423,6.9423,6.9423,6.9423,6.9423,6.9423,6.9423,6.9423,6.9423,6.9423,6.9423,6.9423,6.9423,6.9423,6.9423,6.9423,6.9423,6.9423,6.9423,6.9423,6.9423,6.9423,6.9423,6.9423,6.9423,6.9423,6.9423,6.9423,6.9423,6.9423,6.9423,6.9423,6.9423,6.9423,6.9423,6.9423,6.9423,6.9423,6.9423,6.9423,6.9423,6.9423,6.9423,6.9423,6.9423,6.9423,6.9423,6.9423,6.9423,6.9423,6.9423,6.9423,6.9423,6.9423,6.9423,6.9423,6.9423,6.9423,6.9423,6.9423,6.9423,6.9423,6.9423,6.9423,6.9423,6.9423,6.9423,6.9423,6.9423,6.9423,6.9423,6.9423,6.9423,6.9423,6.9423,6.9423,6.9423,6.9423,6.9423,6.9423,6.9423,6.9423,6.9423,6.9423,6.9423,6.9423,6.9423,6.9423,6.9423,6.9423,6.9423,6.9423,6.9423,6.9423,6.9423,6.9423,6.9423,6.9423,6.9423,6.9423,6.9423,6.9423,6.9423,6.9423,6.9423,6.9423,6.9423,6.9423,6.9423,6.9423,6.9423,6.9423,6.9423,6.9423,6.9423,6.9423,6.9423,6.9423,6.9423,6.9423,6.9423,6.9423,6.9423,6.9423,6.9423,6.9423,6.9423,6.9423,6.9423,6.9423,6.9423,6.9423,6.9423,6.9423,6.9423,6.9423,6.9423,6.9423,6.9423,6.9423,6.9423,6.9423,6.9423,6.9423,6.9423,6.9423,6.9423,6.9423,6.9423,6.9423,6.9423,6.9423,6.9423,6.9423,6.9423,6.9423,6.9423,6.9423,6.9423,6.9423,6.9423,6.9423,6.9423,6.9423,6.9423,6.9423,6.9423,6.9423,6.9423,6.9423,6.9423,6.9423,6.9423,6.9423,6.9423,6.9423,6.9423,6.9423,6.9423,6.9423,6.9423,6.9423,6.9423,6.9423,6.9423,6.9423,6.9423,6.9423,6.9423,6.9423,6.9423,6.9423,6.9423,6.9423,6.9423,6.9423,6.9423,6.9423,6.9423,6.9423,6.9423,6.9423,6.9423,6.9423,6.9423,6.9423,6.9423,6.9423,6.9423,6.9423,6.9423,6.9423,6.9423,6.9423,6.9423,6.9423,6.9423,6.9423,6.9423,6.9423,6.9423,6.9423,6.9423,6.9423,6.9423,6.9423,6.9423,6.9423,6.9423,6.9423,6.9423,6.9423,6.9423,6.7579,6.7511,6.7443,6.7381,6.7308,6.7246,6.7173,6.7106,6.7045,6.6978,6.6906,6.6839,6.6778,6.6706,6.6640,6.6579,6.6514,6.6448,6.6382,6.6317,6.6246,6.6199,6.6168,6.6142,6.6116,6.6092,6.6066,6.6040,6.6009,6.5986,6.5960,6.5929,6.5905,6.5880,6.5854,6.5823,6.5794,6.5769,6.5751,6.5725,6.5699,6.5671,6.5650,6.5620,6.5594,6.5573,6.5550,6.5520,6.5494,6.5469,6.5448,6.5425,6.5395,6.5364,6.5341,6.5306,6.5283,6.5250,6.5222,6.5199,6.5166,6.5138,6.5118,6.5091,6.5063,6.5035,6.5002,6.4980,6.4955,6.4922,6.4899,6.4867,6.4844,6.4817,6.4797,6.4789,6.4774,6.4762,6.4747,6.4727,6.4709,6.4689,6.4664,6.4650,6.4627,6.4607,6.4587,6.4572,6.4555,6.4530,6.4510,6.4493,6.4478,6.4453,6.4434,6.4419,6.4402,6.4382,6.4362,6.4333,6.4298,6.4254,6.4219,6.4178,6.4134,6.4094,6.4050,6.4009,6.3965,6.3921,6.3880,6.3836,6.3795,6.3754,6.3623,6.3477,6.3326,6.3176,6.3029,6.2930,6.2868,6.2805,6.2741,6.2676,6.2608,6.2541,6.2450,6.2362,6.2272,6.2184,6.2094,6.2007,6.1918,6.1827,6.1740,6.1672
6.9368,6.9368,6.9368,6.9368,6.9368,6.9368,6.9368,6.9368,6.9368,6.9368,6.9368,6.9368,6.9368,6.9368,6.9368,6.9368,6.9368,6.9368,6.9368,6.9368,6.9368,6.9368,6.9368,6.9368,6.9368,6.9368,6.9368,6.9368,6.9368,6.9368,6.9368,6.9368,6.9368,6.9368,6.9368,6.9368,6.9368,6.9368,6.9368,6.9368,6.9368,6.9368,6.9368,6.9368,6.9368,6.9368,6.9368,6.9368,6.9368,6.9368,6.9368,6.9368,6.9368,6.9368,6.9368,6.9368,6.9368,6.9368,6.9368,6.9368,6.9368,6.9368,6.9368,6.9368,6.9368,6.9368,6.9368,6.9368,6.9368,6.9368,6.9368,6.9368,6.9368,6.9368,6.9368,6.9368,6.9368,6.9368,6.9368,6.9368,6.9368,6.9368,6.9368,6.9368,6.9368,6.9368,6.9368,6.9368,6.9368,6.9368,6.9368,6.9368,6.9368,6.9368,6.9368,6.9368,6.9368,6.9368,6.9368,6.9368,6.9368,6.9368,6.9368,6.9368,6.9368,6.9368,6.9368,6.9368,6.9368,6.9368,6.9368,6.9368,6.9368,6.9368,6.9368,6.9368,6.9368,6.9368,6.9368,6.9368,6.9368,6.9368,6.9368,6.9368,6.9368,6.9368,6.9368,6.9368,6.9368,6.9368,6.9368,6.9368,6.9368,6.9368,6.9368,6.9368,6.9368,6.9368,6.9368,6.9368,6.9368,6.9368,6.9368,6.9368,6.9368,6.9368,6.9368,6.9368,6.9368,6.9368,6.9368,6.9368,6.9368,6.9368,6.9368,6.9368,6.9368,6.9368,6.9368,6.9368,6.9368,6.9368,6.9368,6.9368,6.9368,6.9368,6.9368,6.9368,6.9368,6.9368,6.9368,6.9368,6.9368,6.9368,6.9368,6.9368,6.9368,6.9368,6.9368,6.9368,6.9368,6.9368,6.9368,6.9368,6.9368,6.9368,6.9368,6.9368,6.9368,6.9368,6.9368,6.9368,6.9368,6.9368,6.9368,6.9368,6.9368,6.9368,6.9368,6.9368,6.9368,6.9368,6.9368,6.9368,6.9368,6.9368,6.9368,6.9368,6.9368,6.9368,6.9368,6.9368,6.9368,6.9368,6.9368,6.9368,6.9368,6.9368,6.9368,6.9368,6.9368,6.9368,6.9368,6.9368,6.9368,6.9368,6.9368,6.9368,6.9368,6.9368,6.9368,6.9368,6.9368,6.9368,6.9368,6.9368,6.9368,6.9368,6.9368,6.9368,6.9368,6.9368,6.9368,6.9368,6.9368,6.9368,6.9368,6.9368,6.9368,6.9368,6.9368,6.9368,6.9368,6.9368,6.9368,6.9368,6.9368,6.9368,6.9368,6.9368,6.9368,6.9368,6.9368,6.9368,6.9368,6.9368,6.9368,6.9368,6.9368,6.9368,6.9368,6.9368,6.9368,6.9368,6.9368,6.9368,6.9368,6.9368,6.9368,6.9368,6.9368,6.9368,6.9368,6.9368,6.9368,6.9368,6.9368,6.9368,6.9368,6.9368,6.9368,6.9368,6.7524,6.7462,6.7389,6.7321,6.7259,6.7187,6.7125,6.7053,6.6986,6.6924,6.6852,6.6791,6.6720,6.6653,6.6593,6.6524,6.6461,6.6393,6.6327,6.6262,6.6204,6.6152,6.6129,6.6103,6.6071,6.6048,6.6022,6.5991,6.5970,6.5942,6.5911,6.5885,6.5859,6.5830,6.5810,6.5784,6.5756,6.5730,6.5709,6.5679,6.5661,6.5630,6.5609,6.5584,6.5555,6.5530,6.5509,6.5484,6.5453,6.5428,6.5407,6.5374,6.5349,6.5321,6.5285,6.5263,6.5230,6.5207,6.5176,6.5149,6.5121,6.5098,6.5065,6.5043,6.5017,6.4990,6.4957,6.4934,6.4902,6.4874,6.4849,6.4827,6.4794,6.4767,6.4752,6.4734,6.4719,6.4699,6.4682,6.4662,6.4642,6.4622,6.4600,6.4585,6.4560,6.4540,6.4528,6.4508,6.4483,6.4466,6.4451,6.4431,6.4407,6.4392,6.4370,6.4350,6.4330,6.4308,6.4264,6.4229,6.4183,6.4143,6.4104,6.4063,6.4019,6.3975,6.3928,6.3887,6.3843,6.3802,6.3759,6.3717,6.3597,6.3450,6.3300,6.3150,6.3017,6.2955,6.2892,6.2828,6.2767,6.2704,6.2636,6.2568,6.2501,6.2413,6.2325,6.2235,6.2147,6.2058,6.1970,6.1879,6.1790,6.1709
